ply
format ascii 1.0
comment Created by CloudCompare v2.11 alpha (Anoia)
comment Created 4/5/20 2:12 PM
obj_info Generated by CloudCompare!
element vertex 1218
property float x
property float y
property float z
property uchar red
property uchar green
property uchar blue
end_header
1.24417 2.76889 1.24478 255 255 255 
1.26911 2.85512 1.29957 255 255 255 
1.24355 2.809 1.24295 255 255 255 
1.2518 2.62206 1.24983 255 255 255 
1.2557 2.65869 1.29018 255 255 255 
1.26826 2.67333 1.27999 255 255 255 
1.25292 2.65658 1.28693 255 255 255 
1.25388 2.77843 1.32947 255 255 255 
1.21606 2.89111 1.16732 255 255 255 
1.25062 2.80325 1.25173 255 255 255 
1.27057 2.7886 1.29739 255 255 255 
1.28612 2.86236 1.3097 255 255 255 
1.25574 2.646 1.27782 255 255 255 
1.24847 2.61633 1.23668 255 255 255 
1.27519 2.8558 1.30543 255 255 255 
1.26856 2.65559 1.29629 255 255 255 
1.2545 2.70789 1.3069 255 255 255 
0.989759 3.95356 0.737884 255 255 255 
0.940498 3.08905 0.747633 255 255 255 
0.955107 4.08381 0.684086 255 255 255 
0.967099 3.1595 0.720216 255 255 255 
1.02924 4.05103 0.713705 255 255 255 
0.903115 2.76408 0.443644 255 255 255 
0.912517 2.65259 0.492267 255 255 255 
0.908728 2.69188 0.466156 255 255 255 
0.914224 2.94563 0.483835 255 255 255 
1.24121 2.77382 1.23499 255 255 255 
1.24596 2.67614 1.24648 255 255 255 
1.2554 2.76813 1.25013 255 255 255 
1.04335 3.15145 0.720755 255 255 255 
1.25212 2.77255 1.26598 255 255 255 
1.26397 2.85601 1.28216 255 255 255 
1.25288 2.67002 1.24607 255 255 255 
1.27056 2.70598 1.28567 255 255 255 
1.26638 2.68465 1.29067 255 255 255 
1.25574 2.64169 1.26588 255 255 255 
0.885717 2.87278 0.325069 255 255 255 
0.896299 2.70657 0.430161 255 255 255 
0.901307 2.93466 0.418581 255 255 255 
0.912498 2.71847 0.488337 255 255 255 
0.907451 3.11795 0.342827 255 255 255 
0.909146 3.10431 0.435914 255 255 255 
0.910725 2.74933 0.461753 255 255 255 
0.911538 2.83344 0.452298 255 255 255 
0.915816 2.8953 0.506508 255 255 255 
0.954888 3.08496 0.749423 255 255 255 
0.963027 3.1041 0.755716 255 255 255 
0.98511 3.08501 0.641103 255 255 255 
1.00711 3.10437 0.731552 255 255 255 
1.03594 3.14897 0.71899 255 255 255 
1.23677 2.72231 1.22244 255 255 255 
1.25722 2.68135 1.26196 255 255 255 
1.25475 2.78058 1.26067 255 255 255 
1.25065 2.85269 1.26189 255 255 255 
1.25524 2.69774 1.26607 255 255 255 
1.2609 2.69145 1.25833 255 255 255 
1.27568 2.81287 1.30153 255 255 255 
1.25262 2.7797 1.26352 255 255 255 
1.2527 2.67175 1.25097 255 255 255 
1.27456 2.65254 1.26928 255 255 255 
1.25688 2.69848 1.26351 255 255 255 
1.27132 2.7682 1.28561 255 255 255 
1.27094 2.67456 1.26392 255 255 255 
1.23996 2.69916 1.24631 255 255 255 
0.864288 2.75864 0.321068 255 255 255 
0.871787 2.7959 0.293779 255 255 255 
0.898223 2.89179 0.435736 255 255 255 
0.918201 4.04225 0.636021 255 255 255 
0.929379 2.97722 0.514656 255 255 255 
0.966439 3.10105 0.760122 255 255 255 
0.838215 3.21282 0.526947 255 255 255 
0.848462 3.20169 0.56749 255 255 255 
0.856676 3.45008 0.535409 255 255 255 
0.838242 2.80745 0.203919 255 255 255 
0.856621 3.20672 0.585729 255 255 255 
0.856683 3.40561 0.572308 255 255 255 
0.858177 3.09429 0.346068 255 255 255 
0.911421 2.93842 0.495622 255 255 255 
0.989522 3.08679 0.743132 255 255 255 
0.995381 3.10922 0.771265 255 255 255 
1.0574 3.16907 0.714934 255 255 255 
0.788091 3.10024 0.433295 255 255 255 
0.819362 3.32166 0.555147 255 255 255 
0.799038 3.08845 0.222792 255 255 255 
0.824184 3.33788 0.563331 255 255 255 
0.826971 3.19816 0.539524 255 255 255 
0.816599 3.09491 0.280373 255 255 255 
0.824854 2.66023 0.264395 255 255 255 
0.825816 2.86083 0.270366 255 255 255 
0.828848 2.93918 0.285181 255 255 255 
0.838308 3.09089 0.324487 255 255 255 
0.904373 2.82539 0.434464 255 255 255 
1.04506 3.09214 0.726264 255 255 255 
0.767412 3.09879 0.406253 255 255 255 
0.763422 3.11612 0.136434 255 255 255 
0.781495 4.04446 0.338637 255 255 255 
0.777162 4.24402 0.399179 255 255 255 
0.788054 4.24442 0.454313 255 255 255 
0.785861 3.09729 0.38329 255 255 255 
0.795658 3.27447 0.513024 255 255 255 
0.794364 3.21423 0.460782 255 255 255 
0.801153 3.21863 0.492243 255 255 255 
0.803175 3.24975 0.552107 255 255 255 
0.804414 3.28439 0.556499 255 255 255 
0.80414 3.09551 0.422019 255 255 255 
0.809192 3.39971 0.484853 255 255 255 
0.805742 3.20128 0.491659 255 255 255 
0.819297 3.21608 0.477961 255 255 255 
0.838143 3.15878 0.525086 255 255 255 
0.857823 3.08363 0.420445 255 255 255 
0.860843 2.73998 0.334914 255 255 255 
0.930612 3.08108 0.683286 255 255 255 
0.908289 2.72656 0.501233 255 255 255 
0.906254 2.65904 0.497026 255 255 255 
0.975608 3.11498 0.766377 255 255 255 
1.02144 3.10587 0.732296 255 255 255 
0.90486 2.84898 0.454724 255 255 255 
0.739393 3.9769 0.310621 255 255 255 
0.739353 4.0742 0.247739 255 255 255 
0.743492 4.03473 0.205853 255 255 255 
0.75337 4.02998 0.307135 255 255 255 
0.765489 4.07282 0.302239 255 255 255 
0.822541 2.75342 0.273253 255 255 255 
0.827991 3.28566 0.574795 255 255 255 
0.828905 2.94412 0.275723 255 255 255 
0.85755 3.38617 0.589862 255 255 255 
0.917338 2.92447 0.473004 255 255 255 
0.915822 2.78575 0.45922 255 255 255 
0.980475 3.09318 0.762179 255 255 255 
0.971681 3.11322 0.731538 255 255 255 
0.704311 4.14277 0.153614 255 255 255 
0.727173 3.101 0.316116 255 255 255 
0.739181 3.95012 0.282109 255 255 255 
0.753791 3.10404 0.324792 255 255 255 
0.801182 3.28194 0.546224 255 255 255 
0.804435 3.21388 0.507646 255 255 255 
0.807263 3.36026 0.538154 255 255 255 
0.818478 3.22807 0.581636 255 255 255 
0.88118 2.8839 0.400529 255 255 255 
0.917889 2.84071 0.476849 255 255 255 
0.911701 2.69893 0.489881 255 255 255 
0.912874 2.82991 0.480117 255 255 255 
1.03445 4.00455 0.725617 255 255 255 
0.988709 3.11631 0.741505 255 255 255 
0.644189 4.15536 0.491964 255 255 255 
0.639382 4.24622 0.180836 255 255 255 
0.656058 4.21794 0.173223 255 255 255 
0.671409 4.35883 0.340449 255 255 255 
0.703602 4.21898 0.140649 255 255 255 
0.781313 3.08765 0.415797 255 255 255 
0.725748 3.10434 0.21557 255 255 255 
0.791136 3.21236 0.471227 255 255 255 
0.720209 4.25662 0.210341 255 255 255 
0.738098 3.11419 0.317938 255 255 255 
0.762656 3.0992 0.122243 255 255 255 
0.766858 4.0312 0.294442 255 255 255 
0.801656 3.08424 0.219723 255 255 255 
0.87474 2.79648 0.206986 255 255 255 
0.865826 3.09196 0.597421 255 255 255 
0.863274 2.83059 0.246504 255 255 255 
0.89453 4.08539 0.573602 255 255 255 
0.916355 4.09084 0.608863 255 255 255 
0.969392 4.01201 0.748662 255 255 255 
0.881818 3.07328 0.503559 255 255 255 
0.922711 3.09247 0.704984 255 255 255 
0.996732 4.06218 0.727574 255 255 255 
0.955115 3.09522 0.69408 255 255 255 
1.02788 4.02454 0.738408 255 255 255 
0.824848 3.2443 0.567053 255 255 255 
0.942423 3.08993 0.687265 255 255 255 
1.00087 3.08665 0.682799 255 255 255 
1.00267 3.09036 0.672301 255 255 255 
0.823829 3.45122 0.506567 255 255 255 
0.86441 2.76455 0.328795 255 255 255 
0.710878 3.12222 0.285952 255 255 255 
0.550515 4.3067 0.196246 255 255 255 
0.689672 4.2366 0.351836 255 255 255 
0.681437 4.27199 0.194594 255 255 255 
0.693781 4.23606 0.556955 255 255 255 
0.627236 4.27133 0.152269 255 255 255 
0.739682 4.25717 0.296894 255 255 255 
0.65084 4.20757 0.170584 255 255 255 
0.68912 3.12007 0.246147 255 255 255 
0.786434 4.28866 0.437451 255 255 255 
0.783993 4.05614 0.355454 255 255 255 
0.815409 4.17429 0.535578 255 255 255 
0.793166 3.24825 0.534367 255 255 255 
0.79434 3.27375 0.513369 255 255 255 
0.794949 3.20944 0.516006 255 255 255 
0.776949 4.2959 0.389547 255 255 255 
0.81951 3.32412 0.55102 255 255 255 
0.820155 3.29353 0.578462 255 255 255 
0.825986 3.34936 0.57799 255 255 255 
0.796793 4.10906 0.357049 255 255 255 
0.83671 3.4035 0.580464 255 255 255 
0.877711 4.14476 0.570037 255 255 255 
0.835846 3.20014 0.560078 255 255 255 
0.814974 4.06818 0.426727 255 255 255 
0.808939 4.20336 0.454317 255 255 255 
0.908697 4.23141 0.59767 255 255 255 
0.838747 4.0949 0.442259 255 255 255 
0.866214 2.89583 0.395656 255 255 255 
0.887935 2.85252 0.227389 255 255 255 
0.840709 3.98772 0.499223 255 255 255 
0.883802 2.7852 0.206343 255 255 255 
0.894717 2.87369 0.453978 255 255 255 
0.884461 3.09594 0.627506 255 255 255 
0.898956 4.24756 0.492768 255 255 255 
0.912451 2.89707 0.512711 255 255 255 
0.900406 3.09769 0.655234 255 255 255 
0.911694 2.79974 0.499604 255 255 255 
0.924132 2.97753 0.541176 255 255 255 
0.795053 4.34499 0.249655 255 255 255 
1.04286 4.13806 0.680732 255 255 255 
1.03715 4.00404 0.749017 255 255 255 
1.01295 4.11961 0.687812 255 255 255 
0.845 2.93302 0.270511 255 255 255 
0.974932 3.11945 0.764559 255 255 255 
0.941136 3.09926 0.733298 255 255 255 
1.0527 4.01407 0.706625 255 255 255 
1.02588 3.14538 0.710423 255 255 255 
1.02214 3.08594 0.70909 255 255 255 
0.898017 2.88113 0.509767 255 255 255 
0.527223 4.27491 0.562539 255 255 255 
0.60623 4.28078 0.398407 255 255 255 
0.642423 4.24513 0.582809 255 255 255 
0.662554 4.28202 0.457716 255 255 255 
0.582036 4.28206 0.284571 255 255 255 
0.691342 4.24551 0.432597 255 255 255 
0.613618 4.20792 0.300282 255 255 255 
0.711649 4.22889 0.592567 255 255 255 
0.760067 4.1972 0.256681 255 255 255 
0.763389 4.24829 0.172751 255 255 255 
0.776374 4.02884 0.356048 255 255 255 
0.792065 4.28733 0.572881 255 255 255 
0.800038 4.02613 0.424624 255 255 255 
0.805944 3.35429 0.510418 255 255 255 
0.797876 3.083 0.460431 255 255 255 
0.809127 3.35594 0.567321 255 255 255 
0.809622 3.27344 0.560258 255 255 255 
0.811904 3.29672 0.572816 255 255 255 
0.799185 3.99821 0.412701 255 255 255 
0.825563 2.84247 0.273548 255 255 255 
0.847008 3.44393 0.547075 255 255 255 
0.915968 4.22256 0.560521 255 255 255 
0.831807 2.72751 0.277189 255 255 255 
0.841928 2.79732 0.307102 255 255 255 
0.835808 3.21512 0.598184 255 255 255 
0.861488 2.90642 0.255636 255 255 255 
0.904778 3.08455 0.409031 255 255 255 
0.896067 3.99212 0.608137 255 255 255 
0.965801 4.05871 0.694585 255 255 255 
0.91428 3.99045 0.647535 255 255 255 
0.916031 2.8658 0.489722 255 255 255 
0.914768 3.08349 0.674342 255 255 255 
0.891589 2.82424 0.43373 255 255 255 
0.986232 3.08876 0.632682 255 255 255 
1.03809 3.13002 0.735286 255 255 255 
0.710275 4.11209 0.171856 255 255 255 
0.564998 4.1856 0.499963 255 255 255 
0.558946 4.25573 0.550475 255 255 255 
0.652886 4.25621 0.434216 255 255 255 
0.863732 4.32028 0.536758 255 255 255 
0.918271 3.09905 0.692966 255 255 255 
0.676822 4.28989 0.473286 255 255 255 
0.593541 4.32647 0.255124 255 255 255 
0.557378 3.56978 0.247213 255 255 255 
0.757805 4.11162 0.276221 255 255 255 
0.883793 4.21518 0.487341 255 255 255 
0.687907 4.00343 0.14668 255 255 255 
0.833474 3.34471 0.55884 255 255 255 
0.358989 4.29147 0.482822 255 255 255 
0.399275 4.26457 0.525212 255 255 255 
0.409586 4.32007 0.449533 255 255 255 
0.5326 4.26864 0.583257 255 255 255 
0.741268 4.25495 0.604312 255 255 255 
0.683791 4.16337 0.174642 255 255 255 
0.883571 4.26118 0.642176 255 255 255 
0.806922 3.10614 0.458634 255 255 255 
0.829426 3.21946 0.534447 255 255 255 
0.911531 2.902 0.359107 255 255 255 
0.922605 3.10866 0.634507 255 255 255 
0.931132 2.97423 0.550851 255 255 255 
0.826934 3.3977 0.546072 255 255 255 
0.293195 4.35278 0.528272 255 255 255 
0.410895 4.26288 0.604122 255 255 255 
0.425119 4.28 0.560526 255 255 255 
0.479024 4.22189 0.632825 255 255 255 
0.486134 4.25457 0.256292 255 255 255 
0.447462 4.25532 0.559412 255 255 255 
0.551716 4.24322 0.657207 255 255 255 
0.574895 4.28749 0.233402 255 255 255 
0.636769 4.29948 0.364565 255 255 255 
0.55429 4.26536 0.540447 255 255 255 
0.70051 4.28816 0.465756 255 255 255 
0.621297 4.24215 0.408205 255 255 255 
0.729432 4.30155 0.504117 255 255 255 
0.768554 4.26767 0.640213 255 255 255 
0.763838 4.1869 0.716758 255 255 255 
0.843041 4.23813 0.686212 255 255 255 
0.757443 3.09957 0.270518 255 255 255 
0.922601 4.18222 0.490526 255 255 255 
0.868165 4.30008 0.470941 255 255 255 
0.942887 4.17952 0.536336 255 255 255 
0.96446 4.22074 0.698235 255 255 255 
0.953768 4.04409 0.685723 255 255 255 
0.742567 4.14959 0.248888 255 255 255 
0.854317 2.86162 0.239758 255 255 255 
0.859542 3.22037 0.548801 255 255 255 
0.883835 3.10074 0.610385 255 255 255 
0.902896 2.85375 0.142548 255 255 255 
1.06129 3.97772 0.712498 255 255 255 
0.959147 3.00694 0.442832 255 255 255 
0.930751 2.92556 0.553219 255 255 255 
1.08079 4.00127 0.695582 255 255 255 
0.710257 3.12234 0.285854 255 255 255 
0.745705 4.23305 0.27991 255 255 255 
0.297663 4.28258 0.469435 255 255 255 
0.326864 4.29129 0.595025 255 255 255 
0.425579 4.27169 0.462675 255 255 255 
0.584989 4.26353 0.514654 255 255 255 
0.194961 4.25993 0.381112 255 255 255 
0.20768 4.28434 0.431885 255 255 255 
0.222861 4.32223 0.500084 255 255 255 
0.236863 4.29295 0.491972 255 255 255 
0.24566 2.83396 0.291662 255 255 255 
0.214933 4.28002 0.355578 255 255 255 
0.264659 4.27325 0.571613 255 255 255 
0.297671 4.29113 0.630788 255 255 255 
0.261521 4.30925 0.442864 255 255 255 
0.337662 4.28499 0.623447 255 255 255 
0.33344 3.60221 0.309834 255 255 255 
0.334811 3.62934 0.268185 255 255 255 
0.541995 4.29184 0.59509 255 255 255 
0.681286 4.15527 0.176985 255 255 255 
0.731571 4.26473 0.467874 255 255 255 
0.789363 4.25176 0.304983 255 255 255 
0.864335 4.27874 0.46349 255 255 255 
0.18947 4.25473 0.645119 255 255 255 
0.208189 4.28401 0.633446 255 255 255 
0.218423 4.30328 0.672009 255 255 255 
0.172252 4.33543 0.384341 255 255 255 
0.208373 4.28059 0.483051 255 255 255 
0.29122 4.30873 0.661753 255 255 255 
0.29294 4.24351 0.551477 255 255 255 
0.20048 4.27617 0.406327 255 255 255 
0.274616 4.02681 0.318804 255 255 255 
0.537419 4.25286 0.244872 255 255 255 
0.681108 4.09857 0.124152 255 255 255 
0.701717 4.2616 0.560582 255 255 255 
0.694751 3.91221 0.160228 255 255 255 
0.705361 3.90093 0.15623 255 255 255 
0.736656 4.09461 0.22809 255 255 255 
0.738006 3.14452 0.239097 255 255 255 
0.0884124 4.30341 0.661902 255 255 255 
0.0344207 3.36263 0.378685 255 255 255 
0.0365255 3.39041 0.408882 255 255 255 
0.118109 4.23709 0.68902 255 255 255 
0.116197 4.3328 0.669957 255 255 255 
0.0381152 4.3126 0.405337 255 255 255 
0.140097 4.2895 0.712503 255 255 255 
0.161226 4.24312 0.766181 255 255 255 
0.0666131 3.35341 0.404738 255 255 255 
0.0639034 4.28476 0.503298 255 255 255 
0.119628 4.31707 0.604175 255 255 255 
0.176238 4.1868 0.702902 255 255 255 
0.130875 3.34589 0.457014 255 255 255 
0.0985082 3.40733 0.372031 255 255 255 
0.181161 4.25259 0.638345 255 255 255 
0.118938 3.38147 0.367918 255 255 255 
0.113359 3.59635 0.388531 255 255 255 
0.25735 4.33062 0.570544 255 255 255 
0.284748 4.31184 0.580567 255 255 255 
0.302385 4.2209 0.472318 255 255 255 
0.250931 2.85458 0.294989 255 255 255 
0.441111 4.24063 0.679066 255 255 255 
0.469176 4.20977 0.635607 255 255 255 
0.445915 4.43081 0.146199 255 255 255 
0.537998 4.29164 0.372906 255 255 255 
0.583068 4.45858 0.423278 255 255 255 
0.254868 4.06999 0.29145 255 255 255 
0.589103 4.29061 0.514401 255 255 255 
0.596028 4.26904 0.400364 255 255 255 
0.594683 4.26772 0.218187 255 255 255 
0.694463 4.18366 0.27093 255 255 255 
0.790769 4.23136 0.302815 255 255 255 
0.791422 4.05594 0.305255 255 255 255 
0.912863 4.25989 0.41949 255 255 255 
0.79836 3.34256 0.515388 255 255 255 
0.263713 4.2943 0.387661 255 255 255 
0.342694 4.26711 0.393578 255 255 255 
0.324962 4.26971 0.572125 255 255 255 
0.386428 4.28189 0.428545 255 255 255 
0.448381 4.27588 0.541753 255 255 255 
-0.042678 3.47999 0.420245 255 255 255 
-0.051503 3.4235 0.429337 255 255 255 
0.0511925 3.39843 0.388152 255 255 255 
0.0388591 4.29592 0.439543 255 255 255 
0.0443947 3.40245 0.392037 255 255 255 
0.713519 4.12611 0.0878427 255 255 255 
-0.186396 4.27436 0.485724 255 255 255 
-0.116151 3.35779 0.431973 255 255 255 
-0.11659 3.89356 0.470316 255 255 255 
-0.138021 4.29016 0.451132 255 255 255 
-0.104148 3.42412 0.443053 255 255 255 
-0.0970925 3.81329 0.459627 255 255 255 
-0.0743893 3.45181 0.45445 255 255 255 
-0.072031 3.90934 0.455225 255 255 255 
-0.118064 3.89509 0.466274 255 255 255 
-0.0849362 3.81115 0.467512 255 255 255 
-0.100626 4.27787 0.466375 255 255 255 
-0.0643457 3.42389 0.444711 255 255 255 
-0.0701668 4.29565 0.474453 255 255 255 
-0.0544606 3.44413 0.44409 255 255 255 
0.0896011 4.29974 0.611702 255 255 255 
-0.0636994 3.41604 0.464439 255 255 255 
-0.0255645 3.25498 0.41788 255 255 255 
-0.0306894 3.61337 0.41894 255 255 255 
-0.0250576 4.0337 0.426163 255 255 255 
-0.027195 3.33403 0.419318 255 255 255 
-0.0176266 2.97819 0.393169 255 255 255 
0.249727 4.24325 0.588246 255 255 255 
0.0989945 3.53742 0.370256 255 255 255 
0.299419 4.28291 0.549084 255 255 255 
0.206107 3.63112 0.321351 255 255 255 
0.459143 4.26844 0.532111 255 255 255 
0.430242 3.59853 0.23891 255 255 255 
0.685087 4.16957 0.0956509 255 255 255 
-0.270349 4.18721 0.531161 255 255 255 
-0.166923 4.28835 0.591687 255 255 255 
-0.16323 4.27981 0.495816 255 255 255 
-0.111709 4.35768 0.603776 255 255 255 
-0.194086 3.87506 0.766895 255 255 255 
-0.0871799 3.44108 0.467259 255 255 255 
-0.0458312 4.28672 0.64146 255 255 255 
-0.0663025 3.45642 0.477952 255 255 255 
-0.116158 4.24899 0.474483 255 255 255 
-0.102219 3.41961 0.456079 255 255 255 
-0.103326 3.49436 0.453122 255 255 255 
-0.0861422 3.85437 0.478118 255 255 255 
-0.0250962 2.94339 0.426489 255 255 255 
0.234308 4.25777 0.545523 255 255 255 
-0.0481891 3.43951 0.455315 255 255 255 
-0.0249917 3.11949 0.405333 255 255 255 
0.210708 3.64377 0.304585 255 255 255 
0.326718 4.28897 0.391334 255 255 255 
0.0371263 3.42784 0.402507 255 255 255 
0.0427809 3.31704 0.406106 255 255 255 
0.208273 2.83041 0.272556 255 255 255 
0.335417 3.57862 0.267859 255 255 255 
0.599298 4.32851 0.246083 255 255 255 
0.72319 4.3844 0.206422 255 255 255 
0.289827 4.27064 0.493904 255 255 255 
0.319809 4.27679 0.327082 255 255 255 
0.0418243 4.14377 0.415026 255 255 255 
-0.00480205 3.90001 0.412373 255 255 255 
0.260171 4.27093 0.548817 255 255 255 
0.081086 3.89105 0.405899 255 255 255 
-0.268975 3.85839 0.801731 255 255 255 
-0.239813 3.93076 0.76979 255 255 255 
-0.225432 3.84331 0.78029 255 255 255 
-0.316333 3.29367 0.512792 255 255 255 
-0.233611 4.0569 0.778131 255 255 255 
-0.297562 3.26573 0.48998 255 255 255 
-0.330148 3.84691 0.541772 255 255 255 
-0.255942 3.05904 0.502948 255 255 255 
-0.290279 3.25346 0.488687 255 255 255 
-0.263507 3.07736 0.479616 255 255 255 
-0.281772 3.8406 0.571336 255 255 255 
-0.171848 3.85733 0.768532 255 255 255 
-0.250873 3.17371 0.471684 255 255 255 
-0.240737 3.89021 0.567945 255 255 255 
-0.316262 3.84041 0.54426 255 255 255 
-0.279679 3.25378 0.491976 255 255 255 
-0.283736 3.3139 0.486833 255 255 255 
-0.230665 3.03651 0.505527 255 255 255 
-0.244934 3.17145 0.488195 255 255 255 
-0.259961 3.8483 0.52753 255 255 255 
-0.2151 3.07107 0.473823 255 255 255 
-0.196748 3.83683 0.483959 255 255 255 
0.0258043 4.30623 0.424679 255 255 255 
0.110858 3.38836 0.354787 255 255 255 
0.268825 4.28854 0.327823 255 255 255 
0.382809 4.2648 0.489366 255 255 255 
0.408746 4.2494 0.503602 255 255 255 
0.439474 3.91225 0.204643 255 255 255 
0.561693 4.25967 0.426816 255 255 255 
0.674572 4.32922 0.111602 255 255 255 
-0.444786 3.83295 0.623671 255 255 255 
-0.385856 3.85111 0.752209 255 255 255 
-0.310079 3.76155 0.788564 255 255 255 
-0.34455 4.03999 0.790322 255 255 255 
-0.287522 2.92435 0.641319 255 255 255 
-0.385232 3.87891 0.618194 255 255 255 
-0.384492 3.31844 0.539086 255 255 255 
-0.368323 3.26706 0.533948 255 255 255 
-0.320052 4.08283 0.725913 255 255 255 
-0.292649 2.89543 0.557684 255 255 255 
-0.295346 2.90711 0.550972 255 255 255 
-0.314002 4.06035 0.706835 255 255 255 
-0.265411 3.8448 0.722967 255 255 255 
-0.291986 3.83047 0.760154 255 255 255 
-0.30897 4.04059 0.798847 255 255 255 
-0.218581 4.10527 0.793619 255 255 255 
-0.213993 4.1263 0.805512 255 255 255 
-0.372149 3.83838 0.569251 255 255 255 
-0.236151 3.91813 0.783878 255 255 255 
-0.294683 3.03968 0.513965 255 255 255 
-0.291644 3.85635 0.657791 255 255 255 
-0.238136 3.98115 0.783451 255 255 255 
-0.281769 3.05972 0.528655 255 255 255 
-0.25787 4.08447 0.779813 255 255 255 
-0.232606 3.91334 0.585095 255 255 255 
-0.266314 3.09137 0.515947 255 255 255 
-0.24244 3.03468 0.540118 255 255 255 
-0.220046 4.29343 0.506973 255 255 255 
-0.181939 4.23552 0.54474 255 255 255 
-0.0559706 4.25299 0.643319 255 255 255 
-0.102683 4.29287 0.490064 255 255 255 
-0.0497252 4.09505 0.459729 255 255 255 
0.0277798 4.20805 0.695644 255 255 255 
-0.217436 3.07308 0.480129 255 255 255 
-0.213371 3.80898 0.494538 255 255 255 
0.0823216 4.37898 0.394547 255 255 255 
0.158226 4.24195 0.589453 255 255 255 
0.0555323 3.36389 0.422648 255 255 255 
0.0922572 3.5974 0.3949 255 255 255 
0.300988 4.27349 0.577639 255 255 255 
0.316883 4.37746 0.337034 255 255 255 
0.232599 4.28175 0.320374 255 255 255 
0.381507 4.29703 0.378588 255 255 255 
0.308064 4.25942 0.396847 255 255 255 
0.385118 4.18013 0.492502 255 255 255 
0.361358 3.87895 0.246534 255 255 255 
0.22728 2.85556 0.244647 255 255 255 
0.477898 4.3295 0.194672 255 255 255 
0.43962 4.23426 0.463938 255 255 255 
0.546299 4.19931 0.384706 255 255 255 
0.576398 4.25567 0.224757 255 255 255 
-0.284467 3.84039 0.709894 255 255 255 
-0.293046 3.84525 0.675671 255 255 255 
-0.191688 4.08533 0.753361 255 255 255 
-0.248405 3.09321 0.490218 255 255 255 
0.0446102 4.28453 0.428285 255 255 255 
-0.382524 4.04137 0.806848 255 255 255 
-0.324017 3.84392 0.817519 255 255 255 
-0.261956 3.83038 0.787858 255 255 255 
0.267676 4.27404 0.492237 255 255 255 
0.40409 4.2802 0.442305 255 255 255 
-0.436104 3.8037 0.749263 255 255 255 
-0.391103 3.81986 0.823518 255 255 255 
-0.494959 3.79982 0.658341 255 255 255 
-0.463329 3.80216 0.71351 255 255 255 
-0.380387 3.84383 0.84806 255 255 255 
-0.388944 3.9624 0.835812 255 255 255 
-0.463589 3.80603 0.687042 255 255 255 
-0.449249 3.81841 0.70057 255 255 255 
-0.429931 3.83105 0.725994 255 255 255 
-0.447518 3.80779 0.68288 255 255 255 
-0.375174 3.84354 0.839221 255 255 255 
-0.460984 3.80742 0.646467 255 255 255 
-0.404101 2.99857 0.57786 255 255 255 
-0.404347 2.98826 0.564836 255 255 255 
-0.330604 3.84383 0.823728 255 255 255 
-0.371197 3.84717 0.729717 255 255 255 
-0.337153 3.82016 0.774912 255 255 255 
-0.276339 4.06905 0.873286 255 255 255 
-0.400503 3.58681 0.556038 255 255 255 
-0.322501 4.03224 0.753909 255 255 255 
-0.381175 3.25948 0.521569 255 255 255 
-0.355562 4.03056 0.796307 255 255 255 
-0.310336 4.02709 0.74481 255 255 255 
-0.373738 3.8514 0.718216 255 255 255 
-0.332789 4.06518 0.817311 255 255 255 
-0.297185 4.03244 0.745559 255 255 255 
-0.395209 3.85075 0.668493 255 255 255 
-0.269913 3.83787 0.801421 255 255 255 
-0.415337 3.84479 0.576869 255 255 255 
-0.241985 3.83968 0.741918 255 255 255 
-0.240783 4.04151 0.787361 255 255 255 
-0.172874 3.83385 0.764275 255 255 255 
-0.298683 3.848 0.527337 255 255 255 
-0.189612 4.21267 0.474503 255 255 255 
-0.114322 4.27027 0.66507 255 255 255 
-0.121739 4.28041 0.635545 255 255 255 
-0.0113084 3.47617 0.416057 255 255 255 
0.0471757 3.35748 0.440345 255 255 255 
0.183577 4.28899 0.356422 255 255 255 
0.083613 3.38727 0.364896 255 255 255 
0.103023 3.36709 0.369607 255 255 255 
0.101639 3.33807 0.366688 255 255 255 
0.121443 3.77872 0.375157 255 255 255 
0.416867 4.27757 0.554589 255 255 255 
0.348899 3.7987 0.268642 255 255 255 
0.435907 3.89054 0.234411 255 255 255 
-0.456087 3.77785 0.782657 255 255 255 
-0.386245 3.83502 0.891245 255 255 255 
-0.388085 3.85081 0.925457 255 255 255 
-0.415007 4.12989 0.865937 255 255 255 
-0.480887 3.79191 0.685997 255 255 255 
-0.468269 3.80129 0.734829 255 255 255 
-0.383589 3.84855 0.861504 255 255 255 
-0.4482 3.81449 0.760583 255 255 255 
-0.385256 4.10449 0.846899 255 255 255 
-0.36007 3.85559 0.843602 255 255 255 
-0.368247 4.03399 0.857117 255 255 255 
-0.40607 3.04994 0.584509 255 255 255 
-0.392262 3.00585 0.584664 255 255 255 
-0.39018 3.01806 0.588319 255 255 255 
-0.370779 4.02897 0.775014 255 255 255 
-0.417674 3.84231 0.610082 255 255 255 
-0.429512 3.8411 0.584879 255 255 255 
-0.409772 3.0449 0.566114 255 255 255 
-0.344696 3.83602 0.826126 255 255 255 
-0.447489 3.85499 0.579112 255 255 255 
-0.355757 3.84284 0.544165 255 255 255 
-0.241072 3.84516 0.76485 255 255 255 
-0.215001 3.87672 0.79341 255 255 255 
-0.299149 3.04768 0.536677 255 255 255 
-0.208127 3.86942 0.783029 255 255 255 
-0.275161 3.04291 0.543768 255 255 255 
-0.242722 3.06709 0.476652 255 255 255 
-0.182765 4.27947 0.586225 255 255 255 
-0.126908 4.25736 0.480495 255 255 255 
-0.32843 3.23049 0.510697 255 255 255 
-0.32412 3.33536 0.528652 255 255 255 
-0.00857448 4.28297 0.581635 255 255 255 
-0.0564411 3.44039 0.45637 255 255 255 
-0.096794 3.80864 0.46522 255 255 255 
-0.0546669 3.36289 0.466927 255 255 255 
0.0186662 3.90102 0.427005 255 255 255 
0.080348 4.28202 0.448747 255 255 255 
-0.0112344 3.44956 0.404375 255 255 255 
0.0807596 4.27653 0.411963 255 255 255 
-0.012555 3.35733 0.410773 255 255 255 
0.139588 3.9973 0.367859 255 255 255 
0.0604201 3.36259 0.372203 255 255 255 
0.148329 4.28158 0.35962 255 255 255 
0.0703067 3.39816 0.392722 255 255 255 
0.311544 4.2709 0.382433 255 255 255 
0.0905002 3.41502 0.362777 255 255 255 
0.298034 4.23768 0.450253 255 255 255 
0.367094 4.26489 0.304092 255 255 255 
-0.408993 3.80479 0.924136 255 255 255 
-0.419765 3.8526 0.911428 255 255 255 
-0.41459 3.87626 0.93236 255 255 255 
-0.406125 3.80688 0.913639 255 255 255 
-0.403467 3.8577 0.919173 255 255 255 
-0.403722 3.84371 0.909923 255 255 255 
-0.442366 4.0727 0.878813 255 255 255 
-0.460509 4.12668 0.875255 255 255 255 
-0.417775 3.81319 0.896986 255 255 255 
-0.411526 3.82205 0.910709 255 255 255 
-0.388386 3.86073 0.92901 255 255 255 
-0.393047 3.80211 0.885319 255 255 255 
-0.418624 4.03692 0.876906 255 255 255 
-0.411097 4.03728 0.886859 255 255 255 
-0.398701 2.98568 0.601328 255 255 255 
-0.424561 3.80475 0.774237 255 255 255 
-0.364922 4.02124 0.77603 255 255 255 
-0.305072 3.83572 0.838121 255 255 255 
-0.344268 4.17587 0.802804 255 255 255 
-0.371854 3.84945 0.689998 255 255 255 
-0.376542 3.83664 0.835319 255 255 255 
-0.323254 4.03947 0.798287 255 255 255 
-0.390878 3.99657 0.783206 255 255 255 
-0.317558 3.83647 0.597467 255 255 255 
-0.312989 3.07055 0.556169 255 255 255 
-0.248625 3.84482 0.711881 255 255 255 
-0.288971 3.84095 0.805746 255 255 255 
-0.132135 4.26881 0.719424 255 255 255 
-0.0965604 4.31513 0.694846 255 255 255 
-0.129528 4.2431 0.514312 255 255 255 
-0.104856 4.28781 0.549225 255 255 255 
-0.117471 3.87645 0.469172 255 255 255 
0.0223916 4.28424 0.62381 255 255 255 
-0.0899628 3.8477 0.481454 255 255 255 
-0.0850404 3.37041 0.449252 255 255 255 
-0.0176064 4.08697 0.427377 255 255 255 
-0.015285 3.64668 0.446904 255 255 255 
0.0429333 4.28648 0.451679 255 255 255 
0.156313 4.26488 0.648806 255 255 255 
0.17741 4.27862 0.601516 255 255 255 
-0.0952378 4.17697 0.501962 255 255 255 
0.164687 4.27849 0.633419 255 255 255 
0.207117 4.27547 0.635964 255 255 255 
0.134784 4.27127 0.396322 255 255 255 
0.280501 4.26497 0.616558 255 255 255 
-0.0464514 3.44858 0.428996 255 255 255 
0.35487 4.27468 0.490617 255 255 255 
0.366142 4.25187 0.47527 255 255 255 
0.462502 4.22729 0.235891 255 255 255 
0.503262 4.12228 0.242828 255 255 255 
0.539675 4.27669 0.215322 255 255 255 
0.51725 4.26154 0.561338 255 255 255 
-0.316925 3.27394 0.477974 255 255 255 
-0.310751 3.84014 0.799808 255 255 255 
-0.367224 3.29645 0.538706 255 255 255 
-0.0263003 4.01509 0.422159 255 255 255 
-0.0185651 3.94337 0.411151 255 255 255 
-0.413789 4.25502 0.783635 255 255 255 
0.269768 4.26997 0.405968 255 255 255 
-0.385076 4.19369 0.835205 255 255 255 
-0.318119 4.01132 0.748546 255 255 255 
-0.31176 3.84932 0.78735 255 255 255 
-0.229349 4.24308 0.817491 255 255 255 
-0.19029 4.29437 0.769609 255 255 255 
-0.269402 3.84526 0.518374 255 255 255 
-0.192009 4.22532 0.752466 255 255 255 
-0.0923796 4.28842 0.685961 255 255 255 
-0.0749635 4.28552 0.716511 255 255 255 
-0.122638 4.28858 0.665741 255 255 255 
-0.131623 4.18243 0.865345 255 255 255 
-0.0880938 3.92582 0.434911 255 255 255 
-0.108421 3.35865 0.446039 255 255 255 
0.000479832 4.27561 0.570546 255 255 255 
0.028413 4.26053 0.633371 255 255 255 
0.117575 4.2745 0.708506 255 255 255 
0.00169782 3.47619 0.406964 255 255 255 
0.0289638 4.00426 0.347874 255 255 255 
0.170447 4.28979 0.678729 255 255 255 
0.159855 4.28758 0.66261 255 255 255 
0.226492 4.27057 0.643892 255 255 255 
0.228124 4.23504 0.696671 255 255 255 
0.0896137 3.34637 0.335717 255 255 255 
0.0433013 3.37249 0.410205 255 255 255 
-0.024191 3.97272 0.404902 255 255 255 
0.404595 4.25098 0.41734 255 255 255 
0.409214 4.27651 0.587583 255 255 255 
0.41916 4.25187 0.646703 255 255 255 
0.278802 4.24777 0.383234 255 255 255 
0.620988 4.29018 0.130508 255 255 255 
0.592555 4.26464 0.40817 255 255 255 
-0.451637 4.03781 0.862971 255 255 255 
-0.390324 3.84502 0.907033 255 255 255 
-0.433517 4.10339 0.870414 255 255 255 
-0.389428 3.81822 0.884237 255 255 255 
-0.418938 3.81604 0.798354 255 255 255 
-0.479652 3.81006 0.653368 255 255 255 
-0.432974 3.82961 0.750992 255 255 255 
-0.374238 3.85306 0.819185 255 255 255 
-0.394804 3.85039 0.712838 255 255 255 
-0.361609 4.16432 0.854916 255 255 255 
-0.364325 4.06347 0.811892 255 255 255 
-0.470423 3.79774 0.688584 255 255 255 
-0.401751 3.84344 0.615375 255 255 255 
-0.332644 3.84126 0.672515 255 255 255 
-0.255177 4.03896 0.771835 255 255 255 
-0.313587 3.83848 0.618501 255 255 255 
-0.207254 3.90169 0.713783 255 255 255 
-0.197743 4.29155 0.749205 255 255 255 
-0.258501 3.08606 0.497777 255 255 255 
-0.111455 4.27808 0.78322 255 255 255 
-0.145052 4.29419 0.535286 255 255 255 
-0.0997111 3.81675 0.454465 255 255 255 
-0.0126598 4.28434 0.736253 255 255 255 
-0.105568 3.46598 0.448293 255 255 255 
-0.0918257 3.3908 0.439527 255 255 255 
0.064531 4.28924 0.461898 255 255 255 
0.0687685 4.27304 0.436643 255 255 255 
0.101755 4.30674 0.710226 255 255 255 
0.157578 4.2828 0.667607 255 255 255 
0.195901 4.29555 0.705555 255 255 255 
0.149853 4.28325 0.638205 255 255 255 
-0.0147839 4.31391 0.421748 255 255 255 
0.0931052 3.24498 0.354058 255 255 255 
0.25635 4.26608 0.551774 255 255 255 
0.138522 4.2661 0.627139 255 255 255 
0.273036 4.29591 0.672153 255 255 255 
0.276062 4.2787 0.485564 255 255 255 
0.277277 4.28805 0.681335 255 255 255 
0.30103 4.26474 0.665603 255 255 255 
0.0940946 4.30502 0.399588 255 255 255 
0.322537 4.26131 0.712871 255 255 255 
0.307078 4.28926 0.316089 255 255 255 
0.338633 4.27608 0.383285 255 255 255 
0.414939 4.26517 0.618887 255 255 255 
0.44549 4.27085 0.437299 255 255 255 
0.479036 4.2731 0.251595 255 255 255 
0.586373 4.31654 0.497699 255 255 255 
0.623826 4.24379 0.147745 255 255 255 
0.633113 4.24248 0.240926 255 255 255 
0.675103 4.08627 0.143282 255 255 255 
-0.33927 3.29677 0.527075 255 255 255 
-0.376043 3.31263 0.546979 255 255 255 
-0.271774 3.08551 0.513269 255 255 255 
-0.118961 3.21816 0.442988 255 255 255 
-0.37984 3.87408 0.887341 255 255 255 
-0.422881 3.87218 0.942582 255 255 255 
-0.2023 3.86459 0.457618 255 255 255 
-0.415038 3.82856 0.784203 255 255 255 
-0.368249 4.03986 0.818332 255 255 255 
-0.453304 3.80938 0.706753 255 255 255 
-0.245218 4.07976 0.839066 255 255 255 
-0.212389 4.31361 0.76372 255 255 255 
-0.0522015 3.36027 0.431418 255 255 255 
0.0437755 3.36995 0.403137 255 255 255 
-0.0662471 3.47748 0.462307 255 255 255 
-0.0514373 3.33178 0.420034 255 255 255 
0.0270786 3.3616 0.383457 255 255 255 
0.0557167 3.35224 0.405837 255 255 255 
0.0322837 3.28017 0.379329 255 255 255 
0.0707975 3.35968 0.374773 255 255 255 
-3.93987e-05 3.4405 0.403145 255 255 255 
-0.0217352 3.26202 0.40625 255 255 255 
0.17137 4.28246 0.676776 255 255 255 
0.121247 4.29638 0.714844 255 255 255 
0.142484 4.29603 0.710996 255 255 255 
0.170056 4.27837 0.716618 255 255 255 
0.1548 4.25527 0.69875 255 255 255 
0.106483 4.27104 0.670502 255 255 255 
0.691642 4.21485 0.150314 255 255 255 
0.65985 4.24106 0.10581 255 255 255 
0.289925 4.27053 0.614456 255 255 255 
0.582847 4.29036 0.253579 255 255 255 
0.523218 4.30384 0.562646 255 255 255 
0.341574 4.25212 0.623678 255 255 255 
0.262661 4.25307 0.433002 255 255 255 
-0.355323 4.04748 0.813889 255 255 255 
0.387162 4.27533 0.593218 255 255 255 
-0.229763 4.22686 0.77548 255 255 255 
0.014209 3.11708 0.38686 255 255 255 
0.284918 4.27458 0.761706 255 255 255 
0.458422 4.26248 0.774111 255 255 255 
-0.423919 4.25465 0.762071 255 255 255 
0.163116 4.25782 0.78505 255 255 255 
0.106362 4.2855 0.696948 255 255 255 
-0.0929022 4.27348 0.713549 255 255 255 
-0.218262 4.08559 0.806137 255 255 255 
0.322435 4.30865 0.758131 255 255 255 
-0.280325 4.03956 0.76973 255 255 255 
0.492697 4.26898 0.680664 255 255 255 
-0.430828 3.79314 0.645581 255 255 255 
-0.382557 3.82427 0.874852 255 255 255 
0.0978124 4.30775 0.6075 255 255 255 
0.134908 4.27829 0.752867 255 255 255 
-0.244984 4.13176 0.890218 255 255 255 
0.476431 4.20365 0.792525 255 255 255 
-0.0422545 4.27369 0.727268 255 255 255 
0.461774 4.29754 0.581408 255 255 255 
0.417242 4.26684 0.510719 255 255 255 
-0.358335 3.85375 0.802385 255 255 255 
-0.330698 4.01949 0.75965 255 255 255 
-0.358824 3.84817 0.707015 255 255 255 
0.313305 4.2951 0.738603 255 255 255 
-0.392019 3.81946 0.862824 255 255 255 
-0.0009657 4.28676 0.611063 255 255 255 
-0.129105 4.28804 0.632227 255 255 255 
-0.00707109 4.29325 0.753293 255 255 255 
0.0456639 4.2969 0.768992 255 255 255 
0.240274 4.23986 0.591179 255 255 255 
0.482193 4.30661 0.705237 255 255 255 
0.121846 4.26042 0.756724 255 255 255 
-0.0560077 4.29129 0.757668 255 255 255 
0.565763 4.33686 0.526504 255 255 255 
-0.347424 3.8388 0.779313 255 255 255 
-0.0804342 4.27734 0.733654 255 255 255 
-0.197911 4.01326 0.764412 255 255 255 
-0.065892 4.26784 0.806377 255 255 255 
0.171503 4.30583 0.569763 255 255 255 
-0.187522 4.25603 0.8207 255 255 255 
-0.358006 4.1968 0.771843 255 255 255 
-0.0435938 4.27548 0.673659 255 255 255 
-0.1173 4.30483 0.747004 255 255 255 
0.0989631 4.29191 0.783193 255 255 255 
-0.372764 3.92501 0.826126 255 255 255 
-0.396323 4.02618 0.752511 255 255 255 
-0.376866 3.88165 0.884429 255 255 255 
-0.264368 4.01962 0.731148 255 255 255 
-0.0843473 4.26045 0.604163 255 255 255 
0.0911693 4.2743 0.679756 255 255 255 
0.614998 4.33422 0.243195 255 255 255 
-0.295135 4.02119 0.728886 255 255 255 
-0.112338 3.44109 0.442991 255 255 255 
-0.0652501 4.03124 0.428232 255 255 255 
0.0730613 4.25492 0.564022 255 255 255 
0.151885 4.2657 0.577374 255 255 255 
-0.451379 3.8384 0.9193 255 255 255 
-0.0377593 4.27982 0.799228 255 255 255 
0.334025 4.26841 0.75249 255 255 255 
0.395209 4.22827 0.69093 255 255 255 
-0.396889 3.01765 0.587204 255 255 255 
-0.289691 3.05772 0.534398 255 255 255 
-0.273024 3.08913 0.512574 255 255 255 
-0.306111 3.0497 0.549317 255 255 255 
-0.28523 3.04735 0.5374 255 255 255 
-0.261355 3.05957 0.512822 255 255 255 
-0.421042 3.05255 0.576199 255 255 255 
-0.339232 3.05976 0.457148 255 255 255 
-0.248908 3.07179 0.488156 255 255 255 
-0.244669 3.18786 0.475591 255 255 255 
-0.418898 3.59991 0.539755 255 255 255 
-0.346467 3.07196 0.529684 255 255 255 
-0.47856 3.8849 0.919005 255 255 255 
-0.456148 3.88068 0.941652 255 255 255 
-0.392925 3.86176 0.918588 255 255 255 
-0.207223 4.25338 0.771035 255 255 255 
-0.474138 3.8705 0.939209 255 255 255 
-0.450996 3.90357 0.915697 255 255 255 
-0.453973 3.86869 0.928638 255 255 255 
-0.435164 3.85323 0.933338 255 255 255 
-0.475853 3.81532 0.85976 255 255 255 
-0.176015 3.96546 0.709299 255 255 255 
-0.432626 4.05445 0.868798 255 255 255 
-0.381517 4.08249 0.829434 255 255 255 
-0.137198 4.26056 0.480914 255 255 255 
-0.483929 3.803 0.827187 255 255 255 
-0.487927 3.84995 0.934372 255 255 255 
-0.594502 3.82256 0.700086 255 255 255 
0.382263 4.28042 0.864297 255 255 255 
0.177311 4.27753 0.800551 255 255 255 
-0.0935623 4.30399 0.856891 255 255 255 
0.385577 4.32636 0.839092 255 255 255 
0.280319 4.31045 0.660157 255 255 255 
-0.0445448 4.32555 0.713861 255 255 255 
0.181275 4.26643 0.823827 255 255 255 
0.160269 4.28539 0.862314 255 255 255 
-0.00581311 4.30341 0.813386 255 255 255 
0.33332 4.30068 0.789893 255 255 255 
0.261612 4.25669 0.782123 255 255 255 
0.218886 4.2555 0.838918 255 255 255 
0.35128 4.30608 0.679683 255 255 255 
-0.0155276 4.3246 0.77647 255 255 255 
0.251358 4.30122 0.821551 255 255 255 
0.446424 4.29528 0.692372 255 255 255 
0.44316 4.243 0.720919 255 255 255 
0.309223 4.2889 0.792987 255 255 255 
-0.338656 3.23656 0.48642 255 255 255 
-0.281856 4.01754 0.739262 255 255 255 
-0.283733 3.83988 0.805376 255 255 255 
0.218127 4.29004 0.393481 255 255 255 
0.323835 4.28658 0.472419 255 255 255 
0.321319 4.3133 0.602333 255 255 255 
-0.277412 3.83182 0.810083 255 255 255 
-0.379215 3.84547 0.555751 255 255 255 
-0.341834 3.83879 0.614842 255 255 255 
-0.132376 3.90324 0.466114 255 255 255 
-0.298583 3.8493 0.667391 255 255 255 
0.257001 4.29084 0.369262 255 255 255 
0.136874 4.30703 0.371176 255 255 255 
0.382179 4.2766 0.891888 255 255 255 
0.0507695 4.31566 0.830192 255 255 255 
-0.251019 4.26834 0.844698 255 255 255 
-0.430982 3.84997 0.918669 255 255 255 
0.142045 4.27194 0.837633 255 255 255 
-0.037643 4.29446 0.838301 255 255 255 
-0.377622 4.03697 0.769163 255 255 255 
0.428893 4.3074 0.800518 255 255 255 
0.340124 4.27357 0.908181 255 255 255 
0.387772 4.28946 0.679892 255 255 255 
-0.48492 3.80427 0.870359 255 255 255 
0.301994 4.28411 0.63153 255 255 255 
0.400846 4.27703 0.829909 255 255 255 
0.205612 4.2727 0.803684 255 255 255 
-0.0375914 4.28238 0.780242 255 255 255 
0.0306732 4.27222 0.86316 255 255 255 
-0.482425 3.80442 0.702524 255 255 255 
-0.299282 4.06648 0.803842 255 255 255 
-0.419215 3.79985 0.895519 255 255 255 
-0.456388 4.09471 0.868941 255 255 255 
-0.493409 3.80929 0.854274 255 255 255 
0.235001 4.28394 0.49054 255 255 255 
-0.464878 3.82684 0.926149 255 255 255 
-0.449195 3.79712 0.902734 255 255 255 
-0.0920798 4.27665 0.831198 255 255 255 
-0.423953 3.82146 0.91522 255 255 255 
0.429664 4.30246 0.82519 255 255 255 
0.276435 4.29978 0.827388 255 255 255 
0.0441006 4.32445 0.805059 255 255 255 
0.442757 4.281 0.650044 255 255 255 
0.487562 4.29343 0.727684 255 255 255 
0.0258835 4.31643 0.784574 255 255 255 
0.081418 4.28046 0.646272 255 255 255 
-0.333289 4.2572 0.88395 255 255 255 
-0.486415 3.80816 0.919625 255 255 255 
0.056374 4.29766 0.861418 255 255 255 
-0.3661 3.85473 0.84969 255 255 255 
0.342259 4.29349 0.440465 255 255 255 
-0.267037 4.30106 0.840521 255 255 255 
-0.465384 3.80932 0.887375 255 255 255 
-0.462224 3.78857 0.923888 255 255 255 
-0.503945 3.79122 0.692689 255 255 255 
-0.558395 3.81942 0.732541 255 255 255 
-0.344104 4.21916 0.882072 255 255 255 
-0.14069 4.26826 0.495977 255 255 255 
0.353443 4.23082 0.741778 255 255 255 
-0.102511 4.32455 0.779188 255 255 255 
-0.547873 4.08453 0.918073 255 255 255 
-0.116887 4.29313 0.717488 255 255 255 
-0.0580563 4.3001 0.64394 255 255 255 
-0.175301 4.28853 0.831241 255 255 255 
0.16807 4.28106 0.90026 255 255 255 
-0.0320802 4.24089 0.596588 255 255 255 
0.0125968 4.3047 0.801105 255 255 255 
-0.32038 4.12391 0.863279 255 255 255 
-0.217645 4.27861 0.847776 255 255 255 
0.24024 4.25611 0.882866 255 255 255 
0.274979 4.28634 0.66077 255 255 255 
-0.0173726 4.13931 0.365765 255 255 255 
0.238611 4.32715 0.848056 255 255 255 
-0.0478059 4.2898 0.810675 255 255 255 
0.0526399 4.3187 0.741165 255 255 255 
-0.28129 4.08073 0.895933 255 255 255 
-0.230361 4.09434 0.824188 255 255 255 
0.430978 4.26764 0.551141 255 255 255 
-0.220776 4.18191 0.791521 255 255 255 
-0.115201 3.37782 0.452926 255 255 255 
-0.0720905 3.36293 0.455335 255 255 255 
-0.0470518 3.35875 0.499423 255 255 255 
-0.0674074 3.43281 0.412294 255 255 255 
-0.029761 3.47388 0.421648 255 255 255 
0.0999421 3.3779 0.339291 255 255 255 
0.197619 4.30314 0.754021 255 255 255 
0.120972 4.27925 0.641564 255 255 255 
0.132076 4.27598 0.850202 255 255 255 
0.265869 4.31364 0.713285 255 255 255 
-0.287816 3.25987 0.46493 255 255 255 
-0.17435 3.93646 0.743576 255 255 255 
-0.500622 3.89102 0.92899 255 255 255 
-0.453304 3.95041 0.898398 255 255 255 
-0.5827 4.24071 0.915363 255 255 255 
-0.23477 4.0558 0.8308 255 255 255 
-0.523113 3.89477 0.958784 255 255 255 
-0.384211 4.06752 0.836881 255 255 255 
-0.413451 4.2348 0.835547 255 255 255 
-0.444208 3.80631 0.750559 255 255 255 
-0.409201 4.22836 0.844086 255 255 255 
-0.136316 4.14122 0.581555 255 255 255 
-0.464088 3.79381 0.930382 255 255 255 
-0.489827 4.08483 0.87916 255 255 255 
-0.320478 4.03552 0.760676 255 255 255 
-0.509624 3.90002 0.939932 255 255 255 
-0.472413 3.81735 0.916333 255 255 255 
-0.104792 3.29393 0.601534 255 255 255 
0.141488 3.61903 0.168237 255 255 255 
0.615773 4.26722 0.165854 255 255 255 
0.702514 4.196 0.0943868 255 255 255 
0.746199 4.24187 0.0672 255 255 255 
0.0180626 4.27619 0.936727 255 255 255 
0.454794 4.31112 0.593809 255 255 255 
-0.0345581 4.29022 0.84164 255 255 255 
0.611598 4.29787 0.194243 255 255 255 
0.636623 4.35959 0.231481 255 255 255 
0.491291 4.27318 0.803763 255 255 255 
0.540596 4.31943 0.695862 255 255 255 
-0.20845 4.25161 0.767533 255 255 255 
-0.405731 3.92539 0.90557 255 255 255 
-0.322604 4.03873 0.794992 255 255 255 
0.199835 4.29946 0.650176 255 255 255 
0.278053 4.31555 0.64993 255 255 255 
0.0313114 4.28766 0.598263 255 255 255 
-0.0977253 4.25118 0.46171 255 255 255 
-0.246728 4.03497 0.700509 255 255 255 
0.308622 4.29526 0.898425 255 255 255 
-0.418633 3.83394 0.778696 255 255 255 
-0.491695 4.08615 0.870762 255 255 255 
0.059106 4.31583 0.885342 255 255 255 
-0.00808437 4.29839 0.895648 255 255 255 
-0.485179 4.07991 0.842654 255 255 255 
-0.242521 4.18038 0.808941 255 255 255 
0.173277 4.31057 0.697252 255 255 255 
0.296018 4.31965 0.810267 255 255 255 
0.157826 4.35537 0.871945 255 255 255 
-0.548365 4.05477 0.892672 255 255 255 
-0.527557 3.94914 0.918704 255 255 255 
-0.452389 4.22769 0.87975 255 255 255 
-0.554635 4.09178 0.896984 255 255 255 
0.205603 4.32348 0.849709 255 255 255 
-0.482763 3.77696 0.740481 255 255 255 
0.175468 4.32328 0.748562 255 255 255 
0.554367 4.28313 0.624042 255 255 255 
-0.433028 3.84097 0.911208 255 255 255 
-0.45347 3.79422 0.91521 255 255 255 
0.212864 4.25251 0.808754 255 255 255 
0.315921 4.28284 0.857126 255 255 255 
-0.346357 4.26018 0.880943 255 255 255 
0.00461458 4.3124 0.761267 255 255 255 
-0.441409 3.82226 0.769062 255 255 255 
-0.454919 3.84193 0.597906 255 255 255 
0.442137 4.25298 0.766005 255 255 255 
-0.0312869 4.39966 0.460957 255 255 255 
-0.598812 4.24511 0.902492 255 255 255 
-0.265223 4.20797 0.866685 255 255 255 
0.465328 4.19396 0.668062 255 255 255 
-0.155239 4.30142 0.927465 255 255 255 
0.616069 4.21727 0.279157 255 255 255 
-0.446146 4.11382 0.842214 255 255 255 
0.205058 4.49441 0.821532 255 255 255 
0.71758 4.38931 0.280325 255 255 255 
-0.145538 4.30135 0.893231 255 255 255 
0.16538 4.31161 0.934847 255 255 255 
-0.136889 4.326 0.860707 255 255 255 
-0.236397 4.28383 0.794008 255 255 255 
-0.125617 4.298 0.730724 255 255 255 
-0.429917 4.24961 0.820534 255 255 255 
-0.122163 4.32804 0.904149 255 255 255 
0.333815 4.28027 0.954946 255 255 255 
0.425992 4.34129 0.354715 255 255 255 
-0.554461 4.19291 0.919891 255 255 255 
-0.512277 4.19207 0.914569 255 255 255 
-0.211085 4.30777 0.856954 255 255 255 
0.390155 4.33448 0.896584 255 255 255 
-0.368555 4.23407 0.819463 255 255 255 
0.528173 4.20592 0.328365 255 255 255 
0.569493 4.295 0.51355 255 255 255 
-0.275467 4.24143 0.738195 255 255 255 
0.354425 4.32397 0.898 255 255 255 
-0.146036 4.30759 0.588509 255 255 255 
0.643899 4.18016 0.0945712 255 255 255 
-0.499002 3.79821 0.72926 255 255 255 
-0.24944 3.86071 0.723021 255 255 255 
0.0142388 4.29717 0.636029 255 255 255 
0.314485 4.32346 0.377414 255 255 255 
-0.395497 3.86453 0.675627 255 255 255 
-0.128092 4.32916 0.558903 255 255 255 
0.72455 4.26319 0.279683 255 255 255 
-0.355422 3.84474 0.757396 255 255 255 
0.54573 4.20389 0.585534 255 255 255 
-0.584397 4.20579 0.865729 255 255 255 
-0.304168 4.10473 0.732944 255 255 255 
0.150622 4.30451 0.853474 255 255 255 
0.0303197 4.3036 0.898142 255 255 255 
0.0227018 4.32216 0.859171 255 255 255 
-0.0923272 4.33618 0.895146 255 255 255 
-0.332298 4.31091 0.863938 255 255 255 
-0.154463 4.29904 0.914312 255 255 255 
-0.356447 4.26622 0.888266 255 255 255 
-0.409693 3.87352 0.918111 255 255 255 
0.147106 4.3097 0.560966 255 255 255 
-0.257812 4.06208 0.793221 255 255 255 
-0.269221 4.26003 0.853333 255 255 255 
0.208539 4.31764 0.928639 255 255 255 
-0.0954242 3.43851 0.440209 255 255 255 
-0.10205 3.44099 0.471054 255 255 255 
-0.0970698 3.37018 0.45621 255 255 255 
-0.0511639 3.44782 0.421275 255 255 255 
-0.494104 4.04112 0.87638 255 255 255 
-0.225377 4.24062 0.802452 255 255 255 
-0.485454 3.82272 0.851145 255 255 255 
0.035474 3.37945 0.405433 255 255 255 
0.0650766 3.38044 0.387718 255 255 255 
0.0922782 3.4144 0.341118 255 255 255 
0.775439 4.03827 0.184345 255 255 255 
0.232932 4.26685 0.339306 255 255 255 
0.218279 4.27419 0.327664 255 255 255 
0.130408 4.29777 0.345619 255 255 255 
0.737235 4.05404 0.188121 255 255 255 
0.787361 3.99954 0.32221 255 255 255 
0.267433 4.28403 0.532796 255 255 255 
0.807309 4.04643 0.212417 255 255 255 
0.661319 4.29762 0.309227 255 255 255 
-0.0520647 4.26193 0.995534 255 255 255 
-0.0137931 4.29916 0.957148 255 255 255 
0.397169 4.30747 0.915983 255 255 255 
0.800304 4.09502 0.235367 255 255 255 
0.474106 4.28866 0.67817 255 255 255 
0.795938 4.05783 0.246371 255 255 255 
0.349979 4.31681 1.04648 255 255 255 
0.754589 4.28454 0.221325 255 255 255 
0.0426196 4.31435 0.986235 255 255 255 
0.792861 4.08446 0.275086 255 255 255 
0.270362 4.278 1.04048 255 255 255 
0.562508 4.29404 0.721533 255 255 255 
0.28002 4.30348 0.99154 255 255 255 
-0.224374 4.04493 0.750564 255 255 255 
-0.222465 3.86354 0.79615 255 255 255 
-0.347226 3.85272 0.843421 255 255 255 
-0.462113 4.21608 0.88156 255 255 255 
0.291934 4.30031 0.871491 255 255 255 
-0.0514296 4.31804 0.965003 255 255 255 
0.254452 4.29137 1.00861 255 255 255 
0.321659 4.35555 0.983717 255 255 255 
0.495596 4.26627 0.842909 255 255 255 
0.833516 4.07325 0.0738599 255 255 255 
0.329642 4.30942 0.867335 255 255 255 
0.0395922 4.3065 1.01885 255 255 255 
0.715815 4.33597 0.435057 255 255 255 
0.663551 4.2538 0.414927 255 255 255 
0.601982 4.34108 0.789493 255 255 255 
0.480597 4.28792 1.04819 255 255 255 
-0.405426 4.29668 0.828772 255 255 255 
-0.344161 4.13311 0.929114 255 255 255 
-0.14066 4.29313 0.968627 255 255 255 
0.700079 4.35248 0.330647 255 255 255 
-0.165312 4.30727 0.977379 255 255 255 
0.414429 4.27281 0.408201 255 255 255 
0.343269 4.36276 0.867377 255 255 255 
-0.297901 4.28619 0.856344 255 255 255 
-0.519203 4.10773 0.900294 255 255 255 
-0.240231 3.88559 0.783798 255 255 255 
0.00376362 3.92594 0.385779 255 255 255 
0.26537 4.06282 0.272617 255 255 255 
-0.315164 4.06203 0.809412 255 255 255 
-0.357264 4.22894 0.912714 255 255 255 
-0.368795 4.33666 0.85864 255 255 255 
-0.138056 4.29994 0.730165 255 255 255 
-0.380273 3.84151 0.74192 255 255 255 
-0.40273 4.03427 0.844467 255 255 255 
-0.188994 3.84785 0.83856 255 255 255 
-0.517329 4.06272 0.900053 255 255 255 
-0.326605 3.83149 0.566435 255 255 255 
-0.467651 4.15673 0.846859 255 255 255 
-0.334538 4.04877 0.794109 255 255 255 
-0.437386 4.20292 0.833747 255 255 255 
0.129679 4.26399 0.386588 255 255 255 
0.248344 4.30783 0.450657 255 255 255 
0.226846 4.24239 1.02857 255 255 255 
0.0181208 4.32591 0.974003 255 255 255 
0.364409 4.3028 1.07282 255 255 255 
0.775797 3.99805 0.418486 255 255 255 
0.441762 4.31456 1.00608 255 255 255 
0.385399 4.28861 0.936425 255 255 255 
0.808886 4.07773 0.327314 255 255 255 
0.294466 4.29279 0.776581 255 255 255 
0.0520735 4.2895 0.968413 255 255 255 
0.523538 4.40675 0.362843 255 255 255 
-0.144002 4.26284 0.543303 255 255 255 
-0.121122 4.27512 0.751209 255 255 255 
