ply
format ascii 1.0
comment Created by CloudCompare v2.11 alpha (Anoia)
comment Created 4/5/20 2:10 PM
obj_info Generated by CloudCompare!
element vertex 1234
property float x
property float y
property float z
property uchar red
property uchar green
property uchar blue
end_header
0.00715089 1.42325 0.890386 255 255 255 
0.0618478 1.49152 1.89167 255 255 255 
-0.0127399 1.43841 1.44817 255 255 255 
0.0784554 1.52359 1.74217 255 255 255 
-0.174698 1.47864 1.87051 255 255 255 
-0.0468896 1.44615 1.58831 255 255 255 
0.0137324 1.45948 2.02109 255 255 255 
0.0101297 1.47259 1.68029 255 255 255 
-0.331668 1.46038 1.71642 255 255 255 
-0.128163 1.45945 1.65535 255 255 255 
0.151755 1.45735 1.8586 255 255 255 
-0.101365 1.4558 1.89809 255 255 255 
0.277452 1.46551 1.46364 255 255 255 
0.307947 1.51569 1.51488 255 255 255 
0.0415778 1.40051 0.988019 255 255 255 
0.161371 1.50724 1.76454 255 255 255 
0.158344 1.48448 1.78683 255 255 255 
0.156595 1.48258 1.58477 255 255 255 
-0.426461 1.42925 0.709113 255 255 255 
-1.31766 1.09833 -0.202985 255 255 255 
-0.0153591 1.4557 1.67933 255 255 255 
-0.662724 1.44326 1.07854 255 255 255 
-0.349308 1.16818 1.47882 255 255 255 
-0.333893 1.47207 0.947912 255 255 255 
-0.472262 1.45677 1.32402 255 255 255 
-2.18943 1.50111 -0.398566 255 255 255 
-2.36797 1.59611 -0.552521 255 255 255 
-2.72166 1.68527 -0.783141 255 255 255 
-0.365047 1.12715 1.56988 255 255 255 
-0.355128 1.0775 1.55751 255 255 255 
-0.71195 1.44503 1.00171 255 255 255 
-0.443305 1.16005 1.52875 255 255 255 
-0.434104 1.4228 1.11988 255 255 255 
-1.21787 1.52711 0.840899 255 255 255 
-0.404143 1.34136 1.75471 255 255 255 
-0.394791 1.35067 1.70846 255 255 255 
-0.411462 1.44146 1.78362 255 255 255 
-0.404792 1.41068 1.70951 255 255 255 
-0.355409 1.34654 1.72373 255 255 255 
-0.217627 1.42655 1.2126 255 255 255 
-0.357015 1.3705 1.46962 255 255 255 
-0.74032 1.43153 1.07066 255 255 255 
-2.05611 1.45275 0.497881 255 255 255 
-0.423716 1.51601 1.20487 255 255 255 
-0.464221 1.46675 1.37322 255 255 255 
-0.935462 1.43147 0.547033 255 255 255 
-0.806999 1.52738 1.06919 255 255 255 
-0.47674 1.48681 1.36115 255 255 255 
-0.381067 1.10142 1.44749 255 255 255 
-0.751781 1.37421 1.0572 255 255 255 
-1.37421 1.45266 0.324973 255 255 255 
-0.928938 1.4053 0.418528 255 255 255 
-1.75535 1.6753 -0.0139856 255 255 255 
-0.658969 1.13208 1.44328 255 255 255 
-0.627194 1.07171 1.46489 255 255 255 
-2.57489 1.59866 0.286503 255 255 255 
-0.383788 1.01352 1.72012 255 255 255 
-1.92463 1.50992 0.85778 255 255 255 
-1.92438 1.37873 0.56689 255 255 255 
-0.69797 1.09087 1.57099 255 255 255 
-0.390566 1.43568 1.77492 255 255 255 
-0.42099 1.12648 1.69336 255 255 255 
-0.468078 1.19315 1.75276 255 255 255 
-0.409806 1.41055 1.74685 255 255 255 
-0.326172 1.44147 1.18063 255 255 255 
-0.430409 1.40152 1.65197 255 255 255 
-0.43387 1.42499 1.79243 255 255 255 
-0.379347 1.44339 1.81023 255 255 255 
-0.656629 1.50584 0.737792 255 255 255 
-0.0406997 1.44505 1.2487 255 255 255 
-0.18495 1.42543 1.09993 255 255 255 
-0.355859 1.12251 1.54111 255 255 255 
-0.405974 1.09124 1.50182 255 255 255 
-0.409313 1.39669 1.5295 255 255 255 
-0.131171 1.44149 2.07272 255 255 255 
-0.337827 1.08943 1.49452 255 255 255 
0.0395988 1.41189 1.62463 255 255 255 
-1.82156 1.38688 -0.0641901 255 255 255 
-0.516062 1.43937 1.06481 255 255 255 
-1.60099 1.36836 0.0207012 255 255 255 
-0.885673 1.42594 0.920461 255 255 255 
-0.0548281 1.45735 1.87522 255 255 255 
-2.07874 1.35146 -0.0999217 255 255 255 
-0.382137 1.45011 2.01662 255 255 255 
0.0955208 1.4468 1.8104 255 255 255 
-0.0470779 1.51081 1.18268 255 255 255 
0.0447403 1.33096 1.43005 255 255 255 
-0.160431 1.4617 2.12811 255 255 255 
-0.380965 1.45921 2.01497 255 255 255 
-0.0134648 1.4609 1.4991 255 255 255 
-0.0900172 1.43743 1.94162 255 255 255 
-0.00897771 1.42678 2.03678 255 255 255 
0.0983013 1.47574 1.77579 255 255 255 
-0.0651478 1.46273 1.86383 255 255 255 
-0.116626 1.45163 1.92446 255 255 255 
-0.0104007 1.46546 1.16442 255 255 255 
0.111314 1.44717 1.78338 255 255 255 
0.00514829 1.40417 2.00788 255 255 255 
0.0538864 1.44921 1.85811 255 255 255 
-0.0457135 1.45581 1.67467 255 255 255 
-1.95697 1.36545 0.760345 255 255 255 
-1.74802 1.37328 0.913092 255 255 255 
-0.676891 1.10662 1.54532 255 255 255 
-1.88435 1.38415 0.805414 255 255 255 
-0.40763 1.20572 1.75544 255 255 255 
-0.400993 1.22991 1.74344 255 255 255 
-1.66502 1.40989 1.17099 255 255 255 
-1.65391 1.40032 1.19159 255 255 255 
-1.86339 1.14913 0.921588 255 255 255 
-1.68125 1.42801 1.11526 255 255 255 
-1.64519 1.42049 1.11767 255 255 255 
-1.85833 1.47546 0.954168 255 255 255 
-1.82671 1.55249 1.09181 255 255 255 
-1.65791 1.42639 1.20193 255 255 255 
-0.665918 1.07654 1.54382 255 255 255 
-1.57459 1.33086 1.23893 255 255 255 
-1.71251 1.51886 1.26767 255 255 255 
-1.93979 1.38512 0.887756 255 255 255 
-0.472945 1.0966 1.70047 255 255 255 
-0.624934 1.06809 1.62204 255 255 255 
-2.31352 1.60181 0.567367 255 255 255 
-0.398297 1.13536 1.74096 255 255 255 
-0.397598 1.45705 1.98323 255 255 255 
-0.37548 1.30442 1.96062 255 255 255 
-0.35737 1.30637 1.9607 255 255 255 
-0.38243 1.43486 1.97283 255 255 255 
-0.391778 1.36893 1.98192 255 255 255 
-0.438951 1.22903 1.7672 255 255 255 
-0.989676 1.48431 1.70824 255 255 255 
-0.38618 1.39867 1.47514 255 255 255 
-0.694797 1.08464 1.59275 255 255 255 
-0.480052 1.34372 1.75442 255 255 255 
-1.64854 1.43275 1.27059 255 255 255 
-0.747721 1.08691 1.5728 255 255 255 
-0.611712 1.12303 1.44791 255 255 255 
-0.278918 1.48118 2.04478 255 255 255 
-1.03451 1.37015 1.70669 255 255 255 
-1.6972 0.997418 1.10309 255 255 255 
-1.71863 1.00732 1.12904 255 255 255 
-1.68784 1.53319 1.28494 255 255 255 
-1.27989 1.36211 1.7221 255 255 255 
-1.68576 1.37109 1.20227 255 255 255 
-0.878266 1.04672 1.69865 255 255 255 
-1.52421 1.38044 1.28682 255 255 255 
-0.908206 1.37875 1.73641 255 255 255 
-1.03552 1.45534 1.76754 255 255 255 
-1.02111 1.42957 1.72527 255 255 255 
-0.396098 1.44384 1.98889 255 255 255 
-0.373666 1.28626 1.95868 255 255 255 
-0.9504 1.418 1.75346 255 255 255 
-0.428082 1.43618 1.9419 255 255 255 
-0.775063 1.33753 1.88618 255 255 255 
-0.475093 1.17154 1.73638 255 255 255 
-0.729333 1.37472 1.88887 255 255 255 
-0.63444 1.3127 1.90934 255 255 255 
-0.395658 1.32733 1.48908 255 255 255 
-0.40926 1.47961 1.80761 255 255 255 
-0.441858 1.28754 1.76855 255 255 255 
-0.719071 1.09512 1.62082 255 255 255 
-1.66439 1.48472 1.1224 255 255 255 
-0.391293 1.36984 1.4629 255 255 255 
-0.99807 1.11475 1.59926 255 255 255 
-1.27356 1.3344 1.34713 255 255 255 
-1.77926 1.21023 1.31504 255 255 255 
-0.365856 1.46871 1.49495 255 255 255 
-0.464403 1.10853 1.62087 255 255 255 
-0.33342 1.43832 1.44739 255 255 255 
-0.44481 1.4587 1.4863 255 255 255 
-0.821115 1.3536 1.80982 255 255 255 
-0.871868 1.41355 1.81004 255 255 255 
-0.847638 1.27041 1.80491 255 255 255 
-0.807817 1.24978 1.73123 255 255 255 
-1.05742 1.2159 1.83615 255 255 255 
-1.22615 1.43397 1.71555 255 255 255 
-0.857791 1.05421 1.69288 255 255 255 
-1.72858 1.16319 1.39369 255 255 255 
-1.27518 1.14764 1.71623 255 255 255 
-1.07501 1.48416 1.77532 255 255 255 
-0.747657 1.2755 1.89684 255 255 255 
-0.508566 1.18273 1.74775 255 255 255 
-0.442349 1.4715 2.20746 255 255 255 
-0.690983 1.22518 1.91163 255 255 255 
-0.63937 1.19608 1.94595 255 255 255 
-0.93429 1.43732 1.74886 255 255 255 
-0.559548 1.29715 1.93705 255 255 255 
-0.447302 1.28448 1.94524 255 255 255 
-0.447261 1.07222 1.46946 255 255 255 
-0.406456 1.36725 1.55995 255 255 255 
-1.46756 1.43093 1.37127 255 255 255 
-0.413545 1.15079 1.73365 255 255 255 
-0.390918 1.23288 1.72549 255 255 255 
-0.614709 1.32604 1.76986 255 255 255 
-0.251265 1.5553 1.57363 255 255 255 
-0.718983 1.19695 1.89146 255 255 255 
-0.395065 1.34994 1.59362 255 255 255 
-0.335481 1.45283 1.55233 255 255 255 
-0.343711 1.49064 1.82238 255 255 255 
-0.209388 1.44132 2.05025 255 255 255 
-1.24519 0.916758 1.54164 255 255 255 
-1.49759 1.08548 1.54959 255 255 255 
-2.18366 0.838511 0.20136 255 255 255 
-1.84756 1.35612 0.874861 255 255 255 
-0.639947 1.27975 1.94429 255 255 255 
-0.20751 1.43975 2.19432 255 255 255 
-0.118493 1.45142 1.9433 255 255 255 
-1.35133 0.966257 1.54256 255 255 255 
-1.58209 1.10712 1.36691 255 255 255 
-0.337746 1.44017 1.56448 255 255 255 
-0.840827 1.0952 1.55316 255 255 255 
-0.214099 1.44244 1.63076 255 255 255 
-0.461444 1.35242 1.76021 255 255 255 
-1.44845 1.42387 0.695929 255 255 255 
-0.337905 1.46661 2.11371 255 255 255 
-0.118122 1.43313 2.1442 255 255 255 
-1.06524 1.45333 0.810211 255 255 255 
-0.337183 1.44659 1.78107 255 255 255 
-0.124001 1.45226 1.93815 255 255 255 
-0.875323 1.43907 1.72705 255 255 255 
-0.0172188 1.45915 1.66569 255 255 255 
-0.13022 1.44642 1.56789 255 255 255 
-1.23184 1.10141 1.63745 255 255 255 
-0.140384 1.45218 1.84511 255 255 255 
-1.45179 1.48386 0.64616 255 255 255 
-0.15576 1.44415 1.82438 255 255 255 
-0.107382 1.44454 2.05413 255 255 255 
-0.0935339 1.44386 2.06803 255 255 255 
-1.81111 1.12963 1.27182 255 255 255 
-1.27696 0.920681 1.59654 255 255 255 
-0.323065 1.43804 1.71467 255 255 255 
-0.460544 1.2837 1.78251 255 255 255 
-0.298701 1.46016 2.03726 255 255 255 
-0.241829 1.48164 1.5772 255 255 255 
-1.53077 1.15331 1.35635 255 255 255 
-1.94345 1.55057 0.496472 255 255 255 
-1.10106 1.07055 1.64532 255 255 255 
-0.740506 1.10404 1.89343 255 255 255 
-1.23621 1.38063 1.66171 255 255 255 
-1.03359 1.01064 1.74077 255 255 255 
-1.68214 1.2007 1.53008 255 255 255 
-1.38266 1.19574 1.60478 255 255 255 
-0.745634 1.46449 1.81847 255 255 255 
-0.126375 1.43183 1.9242 255 255 255 
-0.092214 1.43596 1.98713 255 255 255 
-0.416641 1.46173 2.1897 255 255 255 
-0.263712 1.46974 2.16171 255 255 255 
-0.295141 1.44819 2.03038 255 255 255 
-0.0323566 1.48586 1.86923 255 255 255 
-0.380988 1.45969 2.26374 255 255 255 
-0.363243 1.43863 2.22703 255 255 255 
-0.141904 1.43381 2.06692 255 255 255 
-0.374578 1.46228 2.22619 255 255 255 
-0.0582786 1.4597 2.02079 255 255 255 
-0.31371 1.46431 2.21158 255 255 255 
-0.124154 1.43009 2.19396 255 255 255 
-0.397473 1.34169 1.5247 255 255 255 
-0.0848837 1.43898 2.01193 255 255 255 
-1.78669 1.10485 0.950205 255 255 255 
-1.84939 0.931453 0.910247 255 255 255 
-0.439018 1.14966 1.60298 255 255 255 
-0.515787 1.11676 1.78903 255 255 255 
-0.392794 1.38838 1.98481 255 255 255 
-0.412939 1.48542 2.1011 255 255 255 
-0.310702 1.42435 1.72432 255 255 255 
-1.04545 1.03993 1.72092 255 255 255 
-0.629124 1.1159 1.91571 255 255 255 
-0.467879 1.46693 1.79449 255 255 255 
-0.508319 1.08881 1.7708 255 255 255 
-1.09626 1.1594 1.57673 255 255 255 
-1.33232 1.32515 1.37294 255 255 255 
-0.201747 1.4427 2.07538 255 255 255 
-0.384131 1.49697 1.84865 255 255 255 
-1.44911 0.801061 1.58053 255 255 255 
-1.41972 0.760862 1.58448 255 255 255 
-1.08295 1.45802 1.79815 255 255 255 
-1.1227 1.40942 1.70811 255 255 255 
-0.520198 1.15996 1.76323 255 255 255 
-0.487578 1.45216 1.78249 255 255 255 
-0.478399 1.26652 1.78312 255 255 255 
-0.617339 1.14918 1.92582 255 255 255 
-1.72036 1.26371 0.94759 255 255 255 
-0.416911 1.12017 1.46512 255 255 255 
-0.857388 1.08938 1.34889 255 255 255 
-0.94925 1.33559 1.76751 255 255 255 
-0.710041 1.23195 1.86111 255 255 255 
-1.61411 1.45916 1.06632 255 255 255 
-0.152465 1.43491 1.91718 255 255 255 
-0.0814093 1.44432 1.85548 255 255 255 
-0.385665 1.48074 1.66293 255 255 255 
-0.56521 1.44422 1.85899 255 255 255 
-1.17893 1.15042 1.54034 255 255 255 
-0.604066 1.3189 1.76883 255 255 255 
-0.742805 1.49773 1.78247 255 255 255 
-0.67249 1.38112 1.78676 255 255 255 
-1.55017 1.1404 1.3554 255 255 255 
-0.350239 1.45131 1.60027 255 255 255 
-0.781712 1.50692 1.78372 255 255 255 
-1.6223 1.12409 1.23998 255 255 255 
-0.226306 1.47983 1.88234 255 255 255 
-1.74208 1.12955 1.1752 255 255 255 
-0.297988 1.49554 1.97785 255 255 255 
-0.341924 1.4639 1.7302 255 255 255 
-0.190362 1.44604 1.90615 255 255 255 
-1.13538 0.717162 1.71461 255 255 255 
-0.335574 1.46206 1.58501 255 255 255 
-1.71012 1.38332 0.906598 255 255 255 
-1.32201 0.770846 1.57886 255 255 255 
-0.977824 1.36839 1.73567 255 255 255 
-0.53069 1.4506 1.78583 255 255 255 
-0.515519 1.32813 1.80656 255 255 255 
-0.723695 1.406 1.83721 255 255 255 
-2.13788 1.69454 0.869273 255 255 255 
-1.24181 1.45489 1.70145 255 255 255 
-0.735449 1.17615 1.74214 255 255 255 
-1.05189 1.23804 1.75435 255 255 255 
-0.747753 1.1929 1.85025 255 255 255 
-1.04949 1.19296 1.73529 255 255 255 
-1.31711 0.999987 1.53819 255 255 255 
-1.53696 1.11066 1.61104 255 255 255 
-1.61896 1.15475 1.51975 255 255 255 
-1.0996 1.40389 1.74568 255 255 255 
-0.99247 1.32998 1.79193 255 255 255 
-0.833781 1.09783 1.89927 255 255 255 
-1.18574 1.1141 1.62836 255 255 255 
-0.431441 1.45993 2.27917 255 255 255 
-0.607055 1.11129 1.91329 255 255 255 
-0.636725 1.26451 1.94811 255 255 255 
-0.720176 1.25946 1.89266 255 255 255 
-0.204563 1.43816 2.05107 255 255 255 
-0.13307 1.44708 2.01354 255 255 255 
-0.814356 1.35078 1.87989 255 255 255 
-0.385983 1.46008 2.25475 255 255 255 
-0.0808931 1.4501 2.15578 255 255 255 
-0.563922 1.27689 1.92231 255 255 255 
-1.63477 1.31391 1.03297 255 255 255 
-0.556909 0.99865 1.587 255 255 255 
-1.80985 1.31328 0.875478 255 255 255 
-1.61494 1.26227 1.04854 255 255 255 
-0.658552 1.06629 1.60038 255 255 255 
-0.419251 1.1381 1.51676 255 255 255 
-0.422805 1.18544 1.75059 255 255 255 
-0.39642 1.13087 1.51182 255 255 255 
-0.413202 1.33651 1.71376 255 255 255 
-0.425704 1.35093 1.73716 255 255 255 
-0.41903 1.13161 1.57492 255 255 255 
-0.44636 1.16805 1.55927 255 255 255 
-0.400104 1.33083 1.69525 255 255 255 
-0.412385 1.37062 1.69052 255 255 255 
-0.479194 1.41004 1.77578 255 255 255 
-0.419972 1.16476 1.47049 255 255 255 
-0.431088 1.3299 1.75299 255 255 255 
-0.501467 1.27195 1.78705 255 255 255 
-0.750037 1.28591 1.70887 255 255 255 
-0.459451 1.1885 1.78022 255 255 255 
-0.6871 0.635982 1.86676 255 255 255 
-0.985415 1.25817 1.7905 255 255 255 
-0.69103 0.813609 1.90934 255 255 255 
-2.01794 1.36428 1.43069 255 255 255 
-0.623574 1.10067 1.9225 255 255 255 
-0.360097 1.43611 2.12161 255 255 255 
-0.547166 1.32026 1.95116 255 255 255 
-0.358263 1.47985 2.00222 255 255 255 
-0.609883 1.4414 1.82558 255 255 255 
-0.329947 1.41486 1.88181 255 255 255 
-0.362998 1.50326 2.07252 255 255 255 
-1.12108 1.15202 1.58734 255 255 255 
-1.6042 1.12478 1.3167 255 255 255 
-1.55157 1.02219 1.30589 255 255 255 
-0.442107 1.41965 1.62205 255 255 255 
-0.372547 1.46967 1.68107 255 255 255 
-0.408895 1.3634 1.49358 255 255 255 
-0.801367 1.12645 2.12311 255 255 255 
-0.368494 1.31218 1.63211 255 255 255 
-1.29305 0.677993 1.61174 255 255 255 
-0.407225 1.2825 1.75014 255 255 255 
-1.35053 0.924997 1.59754 255 255 255 
-0.681899 1.46446 1.85171 255 255 255 
-1.16351 0.883077 1.69436 255 255 255 
-0.321842 1.46728 1.86119 255 255 255 
-0.516059 1.41504 1.8265 255 255 255 
-1.29106 0.733389 1.58543 255 255 255 
-0.280808 1.47186 1.86869 255 255 255 
-0.941828 0.832201 1.79113 255 255 255 
-0.311931 1.31544 1.51803 255 255 255 
-0.954397 0.818924 1.79002 255 255 255 
-0.37198 1.34932 1.96605 255 255 255 
-0.174133 1.45007 1.91222 255 255 255 
-1.21315 1.32087 1.57599 255 255 255 
-0.482729 1.47835 1.59963 255 255 255 
-0.656593 1.35575 1.7859 255 255 255 
-0.178726 1.43661 2.05876 255 255 255 
-0.709598 1.03443 1.57902 255 255 255 
-1.25164 1.6391 1.55774 255 255 255 
-0.126301 1.44001 1.72205 255 255 255 
-0.335124 1.47038 2.10872 255 255 255 
-0.422117 1.44446 1.41548 255 255 255 
-0.322143 1.46203 2.03152 255 255 255 
-0.436512 1.47424 1.8355 255 255 255 
-0.646689 1.47571 1.86337 255 255 255 
-0.295427 1.43278 2.09132 255 255 255 
-0.34657 1.46333 2.34054 255 255 255 
-0.433171 1.30476 1.71624 255 255 255 
-0.182266 1.42971 2.07015 255 255 255 
-0.520956 1.27892 1.77254 255 255 255 
-0.0893329 1.45329 2.12977 255 255 255 
-0.897617 1.15949 1.3634 255 255 255 
-0.364439 1.45262 2.03349 255 255 255 
-0.257632 1.46249 1.82109 255 255 255 
-0.201645 1.43581 2.12809 255 255 255 
-0.447925 1.50293 1.85337 255 255 255 
-0.21407 1.45344 2.11728 255 255 255 
-0.26504 1.44121 2.05759 255 255 255 
-0.341416 1.4043 1.49064 255 255 255 
-1.09849 1.21713 1.57046 255 255 255 
-0.488404 1.42681 1.58781 255 255 255 
-0.262175 1.44982 2.10289 255 255 255 
-0.0420772 1.45247 1.66179 255 255 255 
-0.385491 1.43972 2.21091 255 255 255 
-0.330295 1.43373 2.04594 255 255 255 
-0.141867 1.4698 1.65875 255 255 255 
-0.465293 1.46256 1.87126 255 255 255 
-0.351891 1.45583 2.22489 255 255 255 
-0.459024 1.4584 1.56876 255 255 255 
-0.169145 1.46352 1.6534 255 255 255 
-0.339327 1.45349 2.07964 255 255 255 
-0.263611 1.45626 1.98284 255 255 255 
-0.164715 1.44305 1.95712 255 255 255 
-0.188325 1.44273 2.1962 255 255 255 
-0.399366 1.41136 1.65914 255 255 255 
-0.204652 1.45824 2.04082 255 255 255 
-0.221922 1.46355 1.98062 255 255 255 
-0.451149 1.48346 2.3535 255 255 255 
-0.0201502 1.44046 1.84998 255 255 255 
-0.152753 1.43594 2.11443 255 255 255 
-0.109994 1.44279 2.06529 255 255 255 
-0.256515 1.45849 2.0304 255 255 255 
-1.95479 1.68749 0.981282 255 255 255 
-0.279994 1.47538 1.85345 255 255 255 
-0.362807 1.46143 2.25764 255 255 255 
-1.4142 1.25859 0.982506 255 255 255 
-1.70236 1.04848 1.24947 255 255 255 
-0.330528 1.43285 2.08592 255 255 255 
-0.254864 1.46709 1.80485 255 255 255 
-0.285232 1.41594 2.34759 255 255 255 
-1.30396 1.2554 1.47335 255 255 255 
-0.160162 1.42202 2.01769 255 255 255 
-0.169051 1.43842 1.83678 255 255 255 
-0.32919 1.52552 1.94003 255 255 255 
-0.497821 1.37741 1.81444 255 255 255 
-1.54154 1.09341 1.2181 255 255 255 
-0.229068 1.45466 2.03581 255 255 255 
-0.050152 1.44199 1.58743 255 255 255 
-0.227132 1.43719 2.11059 255 255 255 
-0.264113 1.45956 1.72795 255 255 255 
-0.118093 1.45543 1.97502 255 255 255 
-1.78354 1.09201 1.24586 255 255 255 
-0.0808494 1.42614 2.02503 255 255 255 
-0.517209 1.20926 1.75485 255 255 255 
-0.680795 0.653884 1.89734 255 255 255 
-0.45681 1.39818 1.66086 255 255 255 
-0.410001 1.39775 1.719 255 255 255 
-1.30175 1.37784 1.45402 255 255 255 
-0.787165 1.39729 1.81834 255 255 255 
-0.16461 1.42652 2.00441 255 255 255 
-0.329126 1.46353 1.67346 255 255 255 
-0.0923403 1.41594 2.1433 255 255 255 
-0.104709 1.43945 2.19484 255 255 255 
-0.142518 1.43398 1.75444 255 255 255 
-0.169208 1.43176 1.97832 255 255 255 
-0.151529 1.42998 1.99469 255 255 255 
-0.181802 1.39587 2.42231 255 255 255 
-0.123321 1.4528 2.00434 255 255 255 
-0.333133 1.44224 2.0263 255 255 255 
-0.170081 1.36658 2.0592 255 255 255 
-0.362327 1.47839 2.33879 255 255 255 
-0.757372 1.12699 1.52596 255 255 255 
-0.400304 1.17284 1.75071 255 255 255 
-0.43932 1.09413 1.77971 255 255 255 
-0.432505 1.34381 1.76591 255 255 255 
-0.53995 1.19674 1.65656 255 255 255 
-0.456616 1.33297 1.7803 255 255 255 
-1.3547 0.79317 1.67551 255 255 255 
-0.0513006 1.40687 2.04045 255 255 255 
-0.416443 1.26603 1.7718 255 255 255 
-0.656646 1.47147 1.81934 255 255 255 
-0.0807045 1.42818 2.30158 255 255 255 
-0.747564 1.30061 1.79496 255 255 255 
-0.064087 1.36789 2.34242 255 255 255 
-0.389779 1.35432 1.4822 255 255 255 
-0.423244 1.36793 1.77154 255 255 255 
-0.445143 1.37357 1.54136 255 255 255 
-0.900715 1.41766 1.80528 255 255 255 
-0.180968 1.45433 2.19196 255 255 255 
-2.26586 1.07192 1.56243 255 255 255 
-1.81907 0.810695 1.60925 255 255 255 
-0.139994 1.42026 2.01775 255 255 255 
-0.221546 1.40675 2.05725 255 255 255 
-0.297433 1.43174 2.21409 255 255 255 
-0.282097 1.38125 2.42589 255 255 255 
-0.714254 1.11681 1.54554 255 255 255 
-0.200465 1.44926 1.98812 255 255 255 
-0.873306 1.41499 1.80947 255 255 255 
-0.219836 1.47964 2.3926 255 255 255 
-0.13498 1.44156 1.8976 255 255 255 
-0.255682 1.54691 1.56171 255 255 255 
-0.367123 1.41901 2.26723 255 255 255 
-0.237002 1.41838 2.21771 255 255 255 
-0.380147 1.47101 2.20844 255 255 255 
-0.230364 1.48208 2.44565 255 255 255 
-0.295447 1.44797 2.46071 255 255 255 
-0.140093 1.42593 2.28612 255 255 255 
-0.637525 1.38345 1.80046 255 255 255 
-0.145184 1.41738 2.25961 255 255 255 
-0.221632 1.44541 2.33088 255 255 255 
-0.373779 1.47755 1.84967 255 255 255 
-0.0733761 1.4267 1.98669 255 255 255 
-0.0579647 1.40913 2.21019 255 255 255 
-0.0946163 1.41404 2.15309 255 255 255 
-0.409883 1.43291 2.35325 255 255 255 
-0.32607 1.41492 2.44167 255 255 255 
-0.225908 1.40363 2.32344 255 255 255 
-0.336348 1.45499 2.35689 255 255 255 
-0.0960637 1.41982 2.26187 255 255 255 
-0.0525839 1.41129 2.17467 255 255 255 
-0.947051 0.90216 1.76905 255 255 255 
-0.224415 1.43318 2.324 255 255 255 
-0.163048 1.44631 2.17533 255 255 255 
-0.154578 1.41917 2.24661 255 255 255 
-0.321329 1.4469 2.14191 255 255 255 
-0.961424 1.13139 1.63189 255 255 255 
-0.103227 1.43022 2.28589 255 255 255 
-0.255822 1.38909 2.26795 255 255 255 
-0.160184 1.46157 2.18219 255 255 255 
-0.226625 1.48583 1.56911 255 255 255 
-0.243473 1.43839 2.00771 255 255 255 
-0.302364 1.41537 2.01194 255 255 255 
-0.292999 1.46021 2.01772 255 255 255 
-0.657885 0.859973 1.89044 255 255 255 
-0.734215 0.792291 1.89693 255 255 255 
-0.413384 1.32145 1.66963 255 255 255 
-0.736841 0.930598 1.89736 255 255 255 
-0.739506 1.30238 1.90051 255 255 255 
-0.141261 1.42275 2.32797 255 255 255 
-0.278607 1.46419 2.44943 255 255 255 
-0.375291 1.49653 2.2081 255 255 255 
-1.29954 0.755823 2.59886 255 255 255 
-1.03422 1.11195 2.63327 255 255 255 
-1.04318 1.12355 2.63165 255 255 255 
-1.01663 1.08759 2.63836 255 255 255 
-1.56704 0.758693 2.54952 255 255 255 
-1.52562 0.714929 2.56923 255 255 255 
-1.25668 0.891049 2.59934 255 255 255 
-0.952742 0.885823 2.59123 255 255 255 
-1.38551 0.748648 2.53489 255 255 255 
-1.26449 0.905632 2.59869 255 255 255 
-1.53542 0.734291 2.56005 255 255 255 
-1.56576 0.534752 2.55571 255 255 255 
-1.78287 0.553317 2.50505 255 255 255 
-0.809602 1.32491 2.69551 255 255 255 
-0.186144 1.42775 2.43601 255 255 255 
-0.39038 1.49472 2.42803 255 255 255 
-0.155554 1.44664 2.12857 255 255 255 
-0.0479707 1.40437 2.42987 255 255 255 
-0.312969 1.41926 2.03721 255 255 255 
-0.184444 1.46676 2.45043 255 255 255 
-0.0843987 1.45874 2.37953 255 255 255 
-1.0783 1.37043 1.81191 255 255 255 
-0.639699 1.02522 1.57571 255 255 255 
-0.695493 1.07781 1.88697 255 255 255 
-0.692549 1.06958 1.59267 255 255 255 
-1.02667 1.44734 1.74152 255 255 255 
-0.507821 1.24064 1.74795 255 255 255 
-0.428142 1.34319 1.76317 255 255 255 
-0.399818 1.33842 1.75928 255 255 255 
-0.461009 1.08919 1.78089 255 255 255 
-0.459626 1.17319 1.69739 255 255 255 
-0.769637 1.35542 1.89876 255 255 255 
-0.40905 1.34264 1.66892 255 255 255 
-0.493735 1.43737 1.78256 255 255 255 
-0.479139 1.08583 1.78093 255 255 255 
-0.44197 1.36125 1.69937 255 255 255 
-0.190804 1.39864 2.45484 255 255 255 
-0.103674 1.42173 2.29647 255 255 255 
-0.394819 1.51129 2.21323 255 255 255 
-0.10732 1.48232 2.4036 255 255 255 
-1.16335 0.769095 1.78049 255 255 255 
-1.19835 0.849094 1.60562 255 255 255 
-0.491446 1.1326 1.62794 255 255 255 
-0.0825479 1.45184 2.39281 255 255 255 
-0.403164 1.34164 1.64474 255 255 255 
-0.196677 1.42631 2.09582 255 255 255 
-0.363741 1.48567 2.27231 255 255 255 
-0.446898 1.36162 1.72313 255 255 255 
-0.765616 1.38261 1.68509 255 255 255 
-0.322936 1.40034 2.5307 255 255 255 
-1.00638 1.24443 1.59918 255 255 255 
-0.560704 0.781285 1.83014 255 255 255 
-0.239446 1.43246 2.50432 255 255 255 
-0.376982 1.30814 1.55508 255 255 255 
-0.381974 1.10251 1.60005 255 255 255 
-0.757178 1.02296 1.70429 255 255 255 
-0.104209 1.4283 2.43306 255 255 255 
-0.964274 0.98794 1.64558 255 255 255 
-0.364996 1.47983 2.39996 255 255 255 
-0.289374 1.46534 2.44173 255 255 255 
-1.49074 1.01102 1.57744 255 255 255 
-0.256839 1.4811 2.46195 255 255 255 
-0.126577 1.44667 2.45357 255 255 255 
-0.976841 1.13986 1.62449 255 255 255 
-1.03841 0.766901 1.77654 255 255 255 
-0.241373 1.45568 2.53627 255 255 255 
-0.381902 1.39156 1.66406 255 255 255 
-0.710864 1.40418 1.89084 255 255 255 
-0.0909193 1.41348 2.38953 255 255 255 
-0.733849 1.43809 1.91289 255 255 255 
-1.318 0.986844 1.59578 255 255 255 
-1.7852 0.578722 2.58451 255 255 255 
-0.878722 1.08513 1.55748 255 255 255 
-1.30372 0.942532 2.59285 255 255 255 
-1.29381 0.926104 2.59005 255 255 255 
-1.26774 0.715565 2.58791 255 255 255 
-1.23088 1.32742 1.70191 255 255 255 
-1.1439 1.41468 1.7688 255 255 255 
-1.26109 1.4187 1.68843 255 255 255 
-0.416939 1.45605 1.75555 255 255 255 
-0.517935 1.74047 2.57996 255 255 255 
-0.657185 1.3289 1.89719 255 255 255 
-1.25089 1.12986 1.6569 255 255 255 
-1.04471 0.947905 2.64619 255 255 255 
-1.02845 0.929823 2.64423 255 255 255 
-0.748993 1.11187 2.66415 255 255 255 
-1.50582 0.562558 2.53715 255 255 255 
-1.01397 1.07721 2.64255 255 255 255 
-0.832554 1.09525 2.62085 255 255 255 
-0.760202 1.09058 2.66541 255 255 255 
-1.04375 0.900774 2.63936 255 255 255 
-1.30473 0.708084 2.59654 255 255 255 
-1.18281 0.927469 2.58959 255 255 255 
-1.52937 0.737628 2.54033 255 255 255 
-1.34083 0.761635 2.47943 255 255 255 
-0.75013 1.11734 2.68607 255 255 255 
-1.04317 0.910851 2.61269 255 255 255 
-1.39824 0.791534 2.502 255 255 255 
-1.63543 0.534935 2.54024 255 255 255 
-1.18216 0.998831 2.5655 255 255 255 
-0.783207 1.09977 2.12173 255 255 255 
-1.27487 0.78035 2.55809 255 255 255 
-1.83949 0.621485 2.48797 255 255 255 
-1.53615 0.665747 2.531 255 255 255 
-0.902262 1.13468 2.54959 255 255 255 
-1.72863 0.529801 2.51536 255 255 255 
-1.01864 0.982583 2.59961 255 255 255 
-0.451356 1.47541 2.32656 255 255 255 
-0.519624 1.52437 2.49353 255 255 255 
-0.402631 1.45925 2.09097 255 255 255 
-0.393003 1.45551 2.04968 255 255 255 
-0.641032 1.28011 2.6677 255 255 255 
-0.711376 1.27221 2.66778 255 255 255 
-0.81032 1.27084 2.69289 255 255 255 
-0.250118 1.43786 2.04082 255 255 255 
-0.237624 1.50074 2.13886 255 255 255 
-0.312518 1.47403 2.3544 255 255 255 
-0.229414 1.46467 2.5465 255 255 255 
-1.07658 1.27216 1.7507 255 255 255 
-0.776231 1.01244 1.56872 255 255 255 
-2.34654 1.48146 1.48429 255 255 255 
-1.28266 1.43108 1.7862 255 255 255 
-0.386671 1.15992 1.6065 255 255 255 
-1.14207 1.48988 1.73097 255 255 255 
-0.405532 1.14108 1.6013 255 255 255 
-0.400559 1.18475 1.7721 255 255 255 
-0.420633 1.35825 1.75774 255 255 255 
-1.19651 0.913039 2.52966 255 255 255 
-0.63188 1.40402 1.95372 255 255 255 
-0.36645 1.29207 1.95586 255 255 255 
-0.751012 1.47841 1.91375 255 255 255 
-1.01286 0.884315 1.79447 255 255 255 
-1.84679 0.547124 2.50592 255 255 255 
-1.45228 0.761311 2.50499 255 255 255 
-0.292546 1.47914 2.49731 255 255 255 
-1.62831 0.565912 1.69859 255 255 255 
-0.454289 1.08406 1.66808 255 255 255 
-0.456745 1.52552 2.38034 255 255 255 
-0.329715 1.48491 2.3733 255 255 255 
-0.330809 1.50993 2.50755 255 255 255 
-0.324831 1.49922 2.48636 255 255 255 
-0.400022 1.53993 2.09141 255 255 255 
-0.389116 1.46933 1.99331 255 255 255 
-0.240675 1.46745 2.03455 255 255 255 
-1.24213 1.10938 1.63959 255 255 255 
-0.452519 1.51175 2.56379 255 255 255 
-0.246776 1.46997 2.52295 255 255 255 
-0.49586 1.61719 2.54666 255 255 255 
-0.441951 1.48914 2.43593 255 255 255 
-2.39531 0.874377 1.50277 255 255 255 
-0.199035 1.45112 2.3295 255 255 255 
-0.192 1.50546 2.37875 255 255 255 
-0.252997 1.41427 2.53141 255 255 255 
-0.37848 1.42637 1.95522 255 255 255 
-0.18197 1.44591 2.38422 255 255 255 
-0.658438 1.32663 1.91791 255 255 255 
-0.356213 1.51017 2.35014 255 255 255 
-0.553276 1.35709 1.80631 255 255 255 
-0.302171 1.45303 2.50094 255 255 255 
-0.355933 1.48119 2.53645 255 255 255 
-0.414772 1.35089 1.64045 255 255 255 
-0.40868 1.37287 1.65769 255 255 255 
-0.397161 1.49526 2.64117 255 255 255 
-0.406638 1.31757 1.64642 255 255 255 
-0.675912 1.86391 2.866 255 255 255 
-0.692322 1.50873 1.82703 255 255 255 
-0.329314 1.47311 1.8594 255 255 255 
-0.731711 1.48302 1.83476 255 255 255 
-0.387993 1.531 1.72046 255 255 255 
-0.383062 1.46748 1.7202 255 255 255 
-0.395771 1.46556 1.83054 255 255 255 
-0.338441 1.46008 1.58264 255 255 255 
-0.386169 1.44085 1.84194 255 255 255 
-0.360252 1.44752 1.71307 255 255 255 
-0.258844 1.56656 2.58581 255 255 255 
-0.708734 1.51038 1.80606 255 255 255 
-1.2905 1.40948 1.69047 255 255 255 
-0.375924 1.1709 1.76997 255 255 255 
-0.201333 1.52856 2.42982 255 255 255 
-0.534713 1.29096 2.50438 255 255 255 
-0.448028 1.60327 2.59047 255 255 255 
-0.454566 1.6131 2.52053 255 255 255 
-0.491027 1.49789 2.38854 255 255 255 
-0.470224 1.49702 2.29095 255 255 255 
-0.400732 1.46079 2.07389 255 255 255 
-0.698804 1.27544 2.64024 255 255 255 
-0.23793 1.50014 2.4695 255 255 255 
-0.423028 1.54937 2.44993 255 255 255 
-0.358254 1.32361 1.97204 255 255 255 
-0.442673 1.37009 1.73384 255 255 255 
-0.511136 1.37326 1.75026 255 255 255 
-0.566458 1.45823 1.82661 255 255 255 
-0.400396 1.39216 1.7194 255 255 255 
-0.245987 1.53372 2.05146 255 255 255 
-0.504499 1.47213 1.77467 255 255 255 
-0.467645 1.40475 1.67252 255 255 255 
-0.205627 1.47074 2.2874 255 255 255 
-0.273097 1.46576 2.46648 255 255 255 
-0.329362 1.53806 2.36782 255 255 255 
-0.378497 1.48907 2.34689 255 255 255 
-0.258084 1.4703 2.06169 255 255 255 
-0.503457 1.58776 2.73386 255 255 255 
-0.266396 1.46977 2.55198 255 255 255 
-0.282525 1.49298 2.15271 255 255 255 
-0.241799 1.48435 2.09224 255 255 255 
-0.27046 1.47783 2.31605 255 255 255 
-0.671716 1.30809 2.47435 255 255 255 
-0.400913 1.58849 2.32802 255 255 255 
-0.425789 1.42938 1.59536 255 255 255 
-0.328902 1.44754 2.05444 255 255 255 
-0.364361 1.50604 2.16877 255 255 255 
-0.476788 1.52786 1.8327 255 255 255 
-0.386977 1.58033 2.27354 255 255 255 
-0.495005 1.82284 2.24326 255 255 255 
-0.356325 1.4662 1.54197 255 255 255 
-0.358228 1.36343 1.61111 255 255 255 
-0.494644 1.49885 1.86804 255 255 255 
-0.306036 1.4402 1.69969 255 255 255 
-0.314151 1.48478 1.8999 255 255 255 
-0.353268 1.47184 1.65567 255 255 255 
-0.56758 1.42475 1.82547 255 255 255 
-0.477035 1.57825 1.62642 255 255 255 
-0.501716 1.51886 1.82508 255 255 255 
-1.26335 1.37324 1.68561 255 255 255 
-0.457368 1.06158 1.75769 255 255 255 
-0.627424 1.10424 1.91241 255 255 255 
-0.471105 1.50756 2.26144 255 255 255 
-1.43473 0.604828 1.76925 255 255 255 
-2.29815 0.847467 1.46847 255 255 255 
-1.08762 1.45813 1.76769 255 255 255 
-0.731239 1.2475 1.91224 255 255 255 
-1.14302 1.58353 1.5816 255 255 255 
-0.475443 1.11182 1.78119 255 255 255 
-0.683713 1.13308 1.91319 255 255 255 
-0.612222 1.15771 1.93916 255 255 255 
-0.851784 1.10419 1.63864 255 255 255 
-0.90168 1.05336 1.59418 255 255 255 
-1.57087 0.572585 2.55631 255 255 255 
-1.25098 0.749983 2.60486 255 255 255 
-1.46348 0.753497 2.57079 255 255 255 
-1.58156 0.674629 2.54566 255 255 255 
-1.10812 0.897239 1.82903 255 255 255 
-1.32242 0.97632 1.55984 255 255 255 
-1.35593 0.538778 1.80597 255 255 255 
-1.38934 0.599615 1.72749 255 255 255 
-0.890204 1.06489 1.65443 255 255 255 
-0.890673 1.03177 1.6878 255 255 255 
-1.10122 1.40287 1.80136 255 255 255 
-0.419291 1.20156 1.76149 255 255 255 
-0.727866 1.24684 1.91076 255 255 255 
-0.444926 1.10956 1.75425 255 255 255 
-1.16739 1.40366 1.72903 255 255 255 
-1.32553 0.77537 2.59136 255 255 255 
-1.05087 0.839655 1.78921 255 255 255 
-0.433916 1.18095 1.76278 255 255 255 
-1.13517 1.40802 1.82327 255 255 255 
-1.10593 1.4206 1.76472 255 255 255 
-1.09173 0.889007 1.77611 255 255 255 
-1.23856 0.725572 1.78026 255 255 255 
-2.17362 1.21721 1.67582 255 255 255 
-2.22991 0.80294 1.62293 255 255 255 
-2.42533 0.901107 1.51619 255 255 255 
-2.29814 0.888282 1.61538 255 255 255 
-0.476148 1.1251 1.68723 255 255 255 
-0.721581 1.25649 1.84733 255 255 255 
-1.28448 0.747473 2.60146 255 255 255 
-1.84467 0.399332 2.52348 255 255 255 
-1.8086 0.397419 2.52909 255 255 255 
-1.67754 0.541534 2.56466 255 255 255 
-1.41743 0.720054 2.56715 255 255 255 
-1.7673 0.465673 2.4863 255 255 255 
-1.26374 0.897038 2.55289 255 255 255 
-0.531144 1.5112 2.5512 255 255 255 
-0.511098 1.50408 2.4686 255 255 255 
-0.470343 1.51099 2.24823 255 255 255 
-1.64819 1.40829 1.76217 255 255 255 
-1.14311 0.382585 1.76939 255 255 255 
-1.48561 0.601726 1.77129 255 255 255 
-1.3 0.741745 1.77326 255 255 255 
-1.34774 0.738061 1.77653 255 255 255 
-0.899816 1.036 1.67325 255 255 255 
-2.2492 1.01068 1.54668 255 255 255 
-1.09738 1.45236 1.77263 255 255 255 
-1.04357 1.41051 1.80068 255 255 255 
-1.09794 1.43157 1.82002 255 255 255 
-1.01456 1.42765 1.76377 255 255 255 
-1.06361 1.46718 1.77706 255 255 255 
-1.13061 1.42845 1.78369 255 255 255 
-0.418688 1.16209 1.61438 255 255 255 
-0.447681 1.16361 1.64531 255 255 255 
-0.753088 1.37941 1.91004 255 255 255 
-0.783847 0.909836 1.8287 255 255 255 
-0.990852 1.50728 1.81071 255 255 255 
-0.464979 1.12386 1.79111 255 255 255 
-2.25196 1.22333 1.61724 255 255 255 
-2.20842 1.22852 1.65662 255 255 255 
-2.13642 1.15003 1.67615 255 255 255 
-2.22736 1.05735 1.65834 255 255 255 
-2.05372 1.00895 1.6043 255 255 255 
-2.41029 0.867999 1.54934 255 255 255 
-0.845716 1.1007 2.13687 255 255 255 
-1.84893 0.444544 1.59849 255 255 255 
-1.15293 1.44176 1.73114 255 255 255 
-0.443445 1.11728 1.71134 255 255 255 
-0.520526 1.15374 1.71774 255 255 255 
-0.869534 1.04572 1.62912 255 255 255 
-0.848855 1.03173 1.61247 255 255 255 
-0.946832 1.12692 1.63926 255 255 255 
-1.20537 1.44144 1.77233 255 255 255 
-0.64881 1.43931 1.79272 255 255 255 
-2.27689 1.46733 1.66153 255 255 255 
-2.32195 1.47319 1.67599 255 255 255 
-0.88516 0.985259 1.91504 255 255 255 
-1.12888 1.30409 1.61483 255 255 255 
-1.31718 1.49837 1.81559 255 255 255 
-1.30178 1.46386 1.71971 255 255 255 
-1.12989 0.779587 1.83231 255 255 255 
-1.07682 0.359135 1.76775 255 255 255 
-1.05274 1.51415 1.85176 255 255 255 
-1.89855 0.379251 2.55282 255 255 255 
-1.8433 0.564876 2.52314 255 255 255 
-2.11757 0.352171 2.51043 255 255 255 
-1.53284 0.696793 2.57518 255 255 255 
-1.61191 0.587425 2.55225 255 255 255 
-0.755363 1.12823 1.94674 255 255 255 
-0.625368 1.10196 1.91575 255 255 255 
-1.06503 1.40299 1.83459 255 255 255 
-0.837705 1.0409 1.83659 255 255 255 
-1.1615 1.4208 1.74181 255 255 255 
-1.69827 0.354977 1.81062 255 255 255 
-1.10103 0.731636 1.75325 255 255 255 
-2.14558 1.15107 1.66273 255 255 255 
-1.42004 0.626147 1.72151 255 255 255 
-1.63173 0.54093 1.72708 255 255 255 
-0.849418 1.09609 1.8381 255 255 255 
-0.820283 1.32682 2.72112 255 255 255 
-1.02134 0.901604 2.63657 255 255 255 
-1.02104 0.969981 2.60496 255 255 255 
-1.27823 0.787684 2.62115 255 255 255 
-1.86356 0.390985 2.5246 255 255 255 
-2.24084 0.353292 2.4315 255 255 255 
-0.642029 1.13137 2.00778 255 255 255 
-0.764014 1.42111 1.92155 255 255 255 
-0.731882 1.19424 1.90555 255 255 255 
-0.714544 1.11535 1.89991 255 255 255 
-0.728579 1.12784 1.89067 255 255 255 
-0.728187 1.25829 1.83041 255 255 255 
-1.14748 1.4156 1.81108 255 255 255 
-0.896218 1.38757 1.78352 255 255 255 
-1.10116 0.905003 1.80275 255 255 255 
-1.12693 1.45708 1.75412 255 255 255 
-1.04582 0.854303 1.79247 255 255 255 
-1.22138 1.46243 1.70073 255 255 255 
-1.09507 0.370723 1.79098 255 255 255 
-2.21463 1.02325 1.63743 255 255 255 
-1.23891 1.1309 1.6337 255 255 255 
-1.55682 0.529561 1.68965 255 255 255 
-2.257 0.893231 1.56364 255 255 255 
-1.01121 1.02441 2.69073 255 255 255 
-0.925598 0.91289 2.18169 255 255 255 
-0.72285 0.933974 1.89017 255 255 255 
-0.75989 1.27469 1.84092 255 255 255 
-0.829421 1.02315 1.85075 255 255 255 
-0.817588 1.41603 1.82783 255 255 255 
-0.752411 1.24081 1.8955 255 255 255 
-0.930881 1.45659 1.82195 255 255 255 
-1.55703 1.34094 1.76815 255 255 255 
-1.3406 1.38003 1.75249 255 255 255 
-1.19622 1.53177 1.71146 255 255 255 
-1.23454 0.827082 1.77532 255 255 255 
-1.15808 0.769688 1.77245 255 255 255 
-1.10506 1.4908 1.73447 255 255 255 
-0.984658 0.807264 1.79068 255 255 255 
-1.03689 1.46634 1.73449 255 255 255 
-1.19811 1.38773 1.57222 255 255 255 
-0.899973 1.1431 1.61607 255 255 255 
-1.2115 1.41425 1.71198 255 255 255 
-1.18174 0.998433 2.56876 255 255 255 
-1.53825 0.767525 2.52169 255 255 255 
-0.819387 1.13444 2.13027 255 255 255 
-1.11485 1.40351 1.70977 255 255 255 
-0.728264 1.12417 1.88454 255 255 255 
-1.11574 1.27702 1.60431 255 255 255 
-1.85226 0.343221 2.49257 255 255 255 
-2.2476 0.211684 2.4491 255 255 255 
-1.93828 0.334405 2.44415 255 255 255 
-1.6713 0.515105 2.55955 255 255 255 
-2.16699 0.335207 2.39136 255 255 255 
-1.87399 0.394522 2.518 255 255 255 
-0.77681 1.12097 2.02484 255 255 255 
-1.25653 1.64312 1.72439 255 255 255 
-1.13701 0.364009 1.8077 255 255 255 
-1.16578 0.396293 1.77971 255 255 255 
-1.17874 0.342569 1.7825 255 255 255 
-1.59915 0.575197 2.58506 255 255 255 
-1.34836 0.701473 2.60955 255 255 255 
-1.81086 0.404679 2.54621 255 255 255 
-1.78819 0.457986 2.49664 255 255 255 
-2.28354 0.187319 2.46193 255 255 255 
-0.79548 1.05033 2.11785 255 255 255 
-0.754559 1.12466 2.07589 255 255 255 
-2.29642 0.160103 2.3469 255 255 255 
-0.721508 0.792854 1.88843 255 255 255 
-0.787763 1.35885 1.84151 255 255 255 
-0.84248 1.40033 1.81926 255 255 255 
-1.04201 1.45194 1.81412 255 255 255 
-1.00285 1.33653 1.79051 255 255 255 
-1.12239 0.897224 1.82949 255 255 255 
-1.04943 1.44808 1.83945 255 255 255 
-1.2651 1.36705 1.73837 255 255 255 
-1.11682 0.894045 1.7631 255 255 255 
-1.19167 1.36053 1.797 255 255 255 
-1.32218 0.554059 1.77999 255 255 255 
-1.11362 0.350899 1.79721 255 255 255 
-1.35398 0.540936 1.78019 255 255 255 
-2.08986 0.977169 1.68674 255 255 255 
-0.798766 1.37956 1.93306 255 255 255 
-0.888059 1.42184 1.79893 255 255 255 
-0.74004 0.452372 1.89672 255 255 255 
-1.00492 0.993929 1.81846 255 255 255 
-1.16471 1.4274 1.77462 255 255 255 
-1.0064 0.959573 2.64697 255 255 255 
-1.27948 0.758222 2.62271 255 255 255 
-1.50923 0.72123 2.54873 255 255 255 
-0.823896 1.15861 2.09414 255 255 255 
-2.08543 0.362463 2.41075 255 255 255 
-2.25002 0.206075 2.44194 255 255 255 
-1.10335 0.948808 2.02415 255 255 255 
-0.963844 0.697729 1.82824 255 255 255 
-1.214 0.847715 2.57751 255 255 255 
-1.89778 0.359116 2.53356 255 255 255 
-0.901784 1.16242 2.16555 255 255 255 
-2.11005 0.363893 2.41286 255 255 255 
-1.0958 0.924155 2.19548 255 255 255 
-0.743953 1.15571 2.03158 255 255 255 
-2.3434 0.0726695 2.31469 255 255 255 
-0.737981 0.994936 1.89232 255 255 255 
-0.951564 1.46056 1.84916 255 255 255 
-0.797046 0.860808 1.96961 255 255 255 
-1.01034 0.440727 1.82749 255 255 255 
-1.17287 0.450696 1.80692 255 255 255 
-0.929455 1.07726 1.69461 255 255 255 
-0.733391 0.157732 1.89666 255 255 255 
-1.00283 0.387728 1.82708 255 255 255 
-0.731369 0.32054 1.89662 255 255 255 
-0.75135 0.681113 1.89645 255 255 255 
-0.768633 1.34395 2.71364 255 255 255 
-0.83657 1.37515 2.72925 255 255 255 
-0.844446 1.27865 2.6712 255 255 255 
-1.35559 1.00521 2.62532 255 255 255 
-0.701295 1.11232 1.90405 255 255 255 
-1.55617 0.512404 2.51146 255 255 255 
-0.641633 1.05152 1.75765 255 255 255 
-0.788332 1.1838 2.7264 255 255 255 
-0.784672 1.20744 2.67147 255 255 255 
-0.789063 1.22852 2.72699 255 255 255 
-0.803675 1.15396 2.70884 255 255 255 
-1.56578 0.594159 2.59207 255 255 255 
-1.29705 0.856838 2.57756 255 255 255 
-0.761997 1.37302 1.92949 255 255 255 
-0.746608 1.38985 1.91899 255 255 255 
-0.723128 0.224663 1.89143 255 255 255 
-0.864267 1.04901 1.83625 255 255 255 
-0.513201 1.48952 2.54271 255 255 255 
-0.791671 1.24753 2.68076 255 255 255 
-0.781976 1.1837 2.63348 255 255 255 
-0.650838 1.26855 2.05611 255 255 255 
-1.54075 0.605668 2.57872 255 255 255 
-1.39544 0.54536 2.58552 255 255 255 
-0.650045 1.2825 1.94298 255 255 255 
-0.658061 1.29809 1.93246 255 255 255 
-0.755385 0.826941 1.8412 255 255 255 
-1.15322 1.41925 1.82846 255 255 255 
-0.871017 0.60544 1.85037 255 255 255 
-1.16576 1.41249 1.81357 255 255 255 
-0.726536 0.533812 1.89225 255 255 255 
-0.702436 0.451068 1.88209 255 255 255 
-0.780997 1.11983 2.69413 255 255 255 
-0.941566 1.00359 2.6443 255 255 255 
-0.727659 0.970034 2.57292 255 255 255 
-0.642535 1.17142 1.93607 255 255 255 
-0.990246 1.04196 2.62339 255 255 255 
-1.05378 0.955705 2.62405 255 255 255 
-0.728154 1.21971 1.91488 255 255 255 
-0.542381 1.3234 2.75936 255 255 255 
-0.6249 1.29577 2.69236 255 255 255 
-0.72528 1.2383 1.91909 255 255 255 
-0.736575 1.24399 1.91686 255 255 255 
-0.311778 1.52468 2.73476 255 255 255 
-0.465312 1.53365 2.7113 255 255 255 
-0.555138 1.34924 2.76258 255 255 255 
-0.492058 1.49681 2.39224 255 255 255 
-0.654664 1.33533 2.71484 255 255 255 
-0.767994 1.32758 2.67231 255 255 255 
-0.860734 0.631247 2.59987 255 255 255 
-0.672314 1.32175 2.00386 255 255 255 
-1.70537 0.371667 2.49633 255 255 255 
-0.726087 1.02457 1.84929 255 255 255 
-0.731054 1.09401 1.93964 255 255 255 
-0.276504 1.50683 2.71683 255 255 255 
-0.252381 1.50656 2.66256 255 255 255 
-0.273659 1.52073 2.69235 255 255 255 
-0.311407 1.52229 2.6938 255 255 255 
-0.282125 1.48469 2.49059 255 255 255 
-0.316353 1.47598 2.50063 255 255 255 
-0.421424 1.53387 2.4395 255 255 255 
-0.423984 1.49341 2.43015 255 255 255 
-0.481725 1.52901 2.41005 255 255 255 
-0.459578 1.5026 2.36908 255 255 255 
-0.490322 1.51595 2.3633 255 255 255 
-0.49744 1.49637 2.48912 255 255 255 
-0.450637 1.47245 2.28587 255 255 255 
-0.6762 1.05255 2.33838 255 255 255 
-0.864582 0.865873 2.14079 255 255 255 
-0.911885 0.922088 2.16327 255 255 255 
-0.579976 1.20198 1.92513 255 255 255 
-0.9173 0.907191 2.14152 255 255 255 
-0.653304 1.15666 1.9488 255 255 255 
-0.720664 1.26799 1.92583 255 255 255 
-0.643689 1.25895 1.94582 255 255 255 
-1.09638 0.965239 2.23458 255 255 255 
-0.699612 1.14947 1.89895 255 255 255 
-1.71332 0.44135 2.46048 255 255 255 
-1.63719 0.500759 2.40753 255 255 255 
-0.757439 1.36583 1.9078 255 255 255 
-1.6249 0.562493 2.45725 255 255 255 
-0.865429 1.06183 1.86091 255 255 255 
-0.613079 1.11649 1.90741 255 255 255 
-0.646509 0.426952 2.72501 255 255 255 
-0.645422 0.459404 2.72702 255 255 255 
-0.60314 0.411723 2.62105 255 255 255 
-0.641436 0.4483 2.63398 255 255 255 
-0.45392 1.50277 2.56487 255 255 255 
-0.55073 1.45602 2.75656 255 255 255 
-0.539503 1.49968 2.71965 255 255 255 
-0.799386 1.15177 2.67852 255 255 255 
-0.577288 0.480859 2.75857 255 255 255 
-0.584719 0.422299 2.70537 255 255 255 
-0.563924 0.443705 2.67671 255 255 255 
-0.49806 1.39652 2.75611 255 255 255 
-0.655664 0.417236 2.6966 255 255 255 
-0.684575 1.18261 1.91345 255 255 255 
-0.406776 1.52021 2.45739 255 255 255 
-0.788699 1.30434 2.68188 255 255 255 
-0.737453 1.11833 2.70835 255 255 255 
-0.972043 1.22242 2.57413 255 255 255 
-1.03495 1.15785 2.62915 255 255 255 
-0.221455 1.49829 2.56865 255 255 255 
-0.25433 1.5045 2.70576 255 255 255 
-0.233698 1.52037 2.65951 255 255 255 
-0.265809 1.49565 2.49244 255 255 255 
-0.275562 1.52887 2.58823 255 255 255 
-0.356064 1.53103 2.41811 255 255 255 
-0.394759 1.50258 2.28482 255 255 255 
-0.376395 1.48772 2.24933 255 255 255 
-0.39091 1.4756 2.23682 255 255 255 
-0.446264 1.48883 2.21486 255 255 255 
-0.469635 1.4978 2.35006 255 255 255 
-0.537662 1.19905 2.68478 255 255 255 
-0.449542 1.49741 2.18006 255 255 255 
-0.466394 1.3131 1.94439 255 255 255 
-1.14913 0.904574 2.5621 255 255 255 
-0.677257 1.44751 1.92238 255 255 255 
-0.739341 1.34835 1.92592 255 255 255 
-0.473645 1.11551 1.76852 255 255 255 
-0.0226861 1.50712 2.67459 255 255 255 
0.000156939 1.49108 2.5322 255 255 255 
0.00548387 1.5097 2.47476 255 255 255 
-0.0872835 1.57085 2.67055 255 255 255 
-0.0181466 1.51905 2.45754 255 255 255 
-0.0561065 1.42713 2.46495 255 255 255 
-0.0664341 1.49064 2.45755 255 255 255 
-0.102337 1.48395 2.45212 255 255 255 
-0.0627799 1.52711 2.54789 255 255 255 
-0.0830934 1.51147 2.40804 255 255 255 
-0.12147 1.47702 2.42989 255 255 255 
-0.138067 1.50892 2.43172 255 255 255 
-0.149902 1.47236 2.41858 255 255 255 
-0.133401 1.49851 2.50842 255 255 255 
-0.243555 1.50236 2.48713 255 255 255 
-0.173427 1.49041 2.36893 255 255 255 
-0.205429 1.48695 2.49684 255 255 255 
-0.557552 1.44936 2.75696 255 255 255 
-0.239571 1.49896 2.22832 255 255 255 
-0.272445 1.52983 2.59711 255 255 255 
-0.375011 1.51812 2.24879 255 255 255 
-0.352684 1.50557 2.17998 255 255 255 
-0.460157 1.37694 2.76383 255 255 255 
-0.416497 1.52287 2.24257 255 255 255 
-0.375887 1.56817 2.33634 255 255 255 
-0.356849 1.49352 2.12995 255 255 255 
-0.419106 1.50245 2.2795 255 255 255 
-0.57542 1.57902 2.79558 255 255 255 
-0.426889 1.48904 2.10978 255 255 255 
-0.447277 1.50344 2.21718 255 255 255 
-0.416466 1.48585 2.06412 255 255 255 
-0.415582 1.44691 2.02108 255 255 255 
-0.364181 1.29644 1.96557 255 255 255 
-0.424456 1.43216 1.97621 255 255 255 
-0.470273 1.42755 1.97175 255 255 255 
-0.361745 1.29362 1.96098 255 255 255 
-0.479949 1.45675 1.95566 255 255 255 
-0.524373 1.31934 1.96047 255 255 255 
-0.408024 1.18627 1.77812 255 255 255 
-0.431536 1.20542 1.77595 255 255 255 
-0.481726 1.1165 1.78555 255 255 255 
-0.440421 1.16559 1.75037 255 255 255 
-0.740148 1.25256 1.90673 255 255 255 
-0.560552 0.41829 2.71396 255 255 255 
-0.589547 0.432774 2.69169 255 255 255 
-0.367475 1.49136 2.38882 255 255 255 
-0.440032 1.48142 2.37316 255 255 255 
-0.725096 1.2495 2.67857 255 255 255 
0.076769 1.52875 2.70867 255 255 255 
0.0846409 1.51826 2.67165 255 255 255 
0.0403047 1.49193 2.70481 255 255 255 
0.134946 1.51516 2.49327 255 255 255 
-0.00391525 1.52063 2.78792 255 255 255 
-0.0223549 1.52009 2.41481 255 255 255 
-0.0626131 1.50008 2.47558 255 255 255 
-0.0605454 1.49768 2.30056 255 255 255 
-0.289936 1.48701 2.66452 255 255 255 
-0.185001 1.49614 2.23509 255 255 255 
-0.258992 1.44042 2.30353 255 255 255 
-0.235191 1.49601 2.1525 255 255 255 
-0.207803 1.50176 2.51232 255 255 255 
-0.278218 1.47391 2.13411 255 255 255 
-0.353365 1.51216 2.0566 255 255 255 
-0.390505 1.48605 2.04956 255 255 255 
-0.40993 1.48271 2.02992 255 255 255 
-0.41278 1.49406 2.0084 255 255 255 
-0.420147 1.48493 2.11261 255 255 255 
-0.401668 1.39832 1.99113 255 255 255 
-0.419163 1.47607 1.99315 255 255 255 
-0.414085 1.46887 1.97579 255 255 255 
-0.433509 1.46709 1.97068 255 255 255 
0.143826 1.60343 2.84169 255 255 255 
0.182895 1.5203 2.59342 255 255 255 
0.144302 1.48899 2.40875 255 255 255 
-0.0193618 1.50489 2.4306 255 255 255 
-0.0606543 1.49259 2.32103 255 255 255 
-0.0985219 1.48496 2.17204 255 255 255 
-0.446137 1.50579 2.6989 255 255 255 
-0.46488 1.60944 2.65996 255 255 255 
-0.23709 1.50305 2.14124 255 255 255 
-0.238136 1.49513 2.1206 255 255 255 
-0.286267 1.49256 2.06176 255 255 255 
-0.366451 1.48863 2.12815 255 255 255 
-0.946704 1.00443 2.65103 255 255 255 
-0.738946 1.25163 2.72048 255 255 255 
-0.415123 1.3691 1.97006 255 255 255 
0.297011 1.55126 2.6443 255 255 255 
0.281837 1.52749 2.59748 255 255 255 
0.293485 1.50883 2.55069 255 255 255 
0.237767 1.5044 2.69668 255 255 255 
0.208032 1.52711 2.6884 255 255 255 
0.206782 1.54526 2.70107 255 255 255 
0.217379 1.5336 2.37819 255 255 255 
0.140866 1.50282 2.43645 255 255 255 
0.136469 1.57263 2.39689 255 255 255 
0.0538291 1.55735 2.82876 255 255 255 
0.0869696 1.54229 2.4561 255 255 255 
0.0869615 1.49996 2.63101 255 255 255 
0.0561917 1.52859 2.46851 255 255 255 
-0.171704 1.53739 2.71008 255 255 255 
-0.0049285 1.51919 2.26729 255 255 255 
-0.175063 1.46469 2.44064 255 255 255 
-0.21202 1.48281 2.47378 255 255 255 
-0.054671 1.49553 2.19435 255 255 255 
-0.32046 1.48536 2.53559 255 255 255 
-0.179399 1.50693 2.45654 255 255 255 
-0.270517 1.54239 2.39537 255 255 255 
-0.200926 1.38871 2.34389 255 255 255 
-0.208215 1.4827 2.07006 255 255 255 
-0.428634 1.48981 2.35169 255 255 255 
-0.481688 1.43989 2.57349 255 255 255 
-0.247383 1.50398 2.07593 255 255 255 
-0.423261 1.48778 2.23887 255 255 255 
-0.46248 1.46745 2.38375 255 255 255 
-0.348195 1.51738 2.29454 255 255 255 
-0.432013 1.47058 2.32522 255 255 255 
-0.400956 1.51449 2.49469 255 255 255 
-0.408878 1.49049 2.28256 255 255 255 
-0.370732 1.51388 2.4164 255 255 255 
-0.351113 1.54266 2.20242 255 255 255 
0.262628 1.56203 2.41837 255 255 255 
0.287191 1.53135 2.58068 255 255 255 
0.173521 1.50119 2.31178 255 255 255 
0.159233 1.50922 2.27034 255 255 255 
0.142457 1.50777 2.29264 255 255 255 
